ncols 323
nrows 32
xllcorner 564435.675516
yllcorner 5191079.81344
cellsize 30.0
nodata_value -9999.0
642.6016 655.593 663.7047 667.6982 678.218 689.6739 699.9185 711.1706 722.0547 730.1075 733.1116 731.6331 726.2424 719.3957 711.5685 697.6087 689.7101 685.3671 683.5587 685.3408 695.4144 708.9218 714.8261 710.2753 698.8948 684.9803 675.1735 682.1307 691.6335 704.5419 716.1241 730.0316 739.9293 743.4352 748.4582 753.6387 761.103 766.2933 774.4062 783.7056 796.5643 811.1862 820.4186 823.2965 823.5088 826.9191 830.8557 838.0958 843.723 845.0082 847.5723 857.0477 865.178 871.2921 875.597 882.2216 894.4641 912.5624 930.9722 948.653 967.7632 980.3292 985.283 984.2935 991.6129 1005.239 1019.25 1030.708 1033.58 1033.032 1028.613 1023.742 1020.038 1013.583 1004.357 993.7957 984.4255 977.3939 972.6955 971.7305 972.9803 975.2541 979.8486 987.0822 991.704 1000.229 1006.132 1011.903 1016.604 1021.872 1027.561 1034.396 1046.665 1052.232 1049.617 1041.95 1032.448 1024.794 1016.148 1007.588 997.6825 986.2426 975.335 966.0616 959.1357 951.9693 944.7136 939.3966 932.5919 922.2379 916.7141 918.6761 917.0034 913.0494 909.5136 914.2688 923.5173 924.1282 918.6088 907.9521 897.0297 890.6633 889.9048 888.8042 887.1224 884.313 882.1032 874.3603 861.4402 855.2676 844.5869 831.1982 821.5824 817.7792 812.15 811.574 824.7498 836.846 846.4059 842.6591 832.0464 816.5331 802.5538 795.0376 781.9335 768.3474 748.32 727.9364 725.292 736.9743 749.4573 763.5715 780.5702 796.0119 809.7117 823.8243 831.0909 833.3036 824.4805 812.773 798.5803 778.5242 760.4165 749.0724 751.2452 749.2255 740.6692 738.4258 745.4022 761.2917 779.9353 794.228 808.1079 821.9688 831.8563 832.5452 830.9632 825.8129 819.2834 824.3159 833.8373 844.3629 851.5342 857.3007 858.9288 869.3205 881.9114 889.0807 886.2007 881.702 885.9448 895.2258 900.9985 906.4846 915.0548 922.6498 927.7415 930.8199 936.4279 939.9338 937.9993 934.4537 933.8944 937.5153 946.1293 952.598 961.6145 974.7773 985.1118 997.0383 1008.063 1017.848 1029.036 1040.969 1056.169 1072.527 1088.821 1104.562 1119.285 1134.107 1145.315 1147.135 1147.437 1146.119 1145.214 1150.702 1155.931 1161.245 1162.715 1161.45 1161.261 1160.28 1157.451 1152.529 1149.735 1147.405 1144.595 1139.372 1132.298 1124.373 1115.698 1108.208 1103.201 1099.903 1096.752 1096.551 1094.576 1085.82 1073.472 1057.48 1044.089 1031.815 1017.312 998.6192 999.0538 1016.014 1010.753 996.538 987.6836 978.5806 965.5043 948.6793 930.9664 912.0084 894.8323 876.4058 864.5338 856.3008 850.1019 850.4785 842.021 846.004 851.8748 843.0948 833.2278 828.0297 824.8638 831.1885 827.3288 829.7492 839.505 837.7826 832.8466 825.45 818.7089 811.5714 804.2833 796.0857 789.9936 781.4731 774.452 767.9464 761.6352 755.8394 751.0429 740.383 732.2123 722.7673 711.0864 704.9931 697.3881 686.7494 691.2166 717.1099 731.4839 739.8013 745.2905 748.2282 748.2355 743.3553 733.7563 721.6792 707.4051 691.5922 672.4796 656.1043 635.9756 626.005 642.0345 656.8789 667.6405 663.819 649.4155
637.1076 647.6312 655.5182 666.1183 677.2234 686.4479 696.554 707.2107 718.3738 728.8279 734.3279 736.4586 735.2983 730.4066 723.079 714.4643 706.1466 696.4716 697.8008 696.1877 695.3127 703.5617 715.7067 717.4734 706.0388 697.0262 695.9202 694.053 699.9451 705.4669 706.1265 718.349 727.3235 732.35 739.6188 746.111 754.9656 761.6788 770.7106 784.9695 798.5739 814.0903 817.535 817.715 820.4561 826.9863 831.2552 839.3575 843.051 845.1484 847.0765 854.0867 861.0267 866.8884 870.9575 876.1936 890.7089 907.5253 925.7588 947.6026 968.877 986.5888 997.2131 1000.596 1005.79 1014.024 1027.223 1037.513 1041.348 1040.466 1036.512 1027.83 1022.551 1016.199 1007.571 998.0974 991.172 984.1512 980.5074 979.5862 980.9088 984.2672 989.123 995.2784 1001.78 1011.583 1019.535 1025.189 1030.37 1038.661 1046.223 1053.894 1062.222 1061.473 1054.48 1046.764 1038.083 1030.795 1021.349 1011.534 1002.177 988.8888 976.0294 964.482 954.6784 946.5984 939.1206 932.3435 926.8339 920.201 911.7809 909.6522 907.4738 903.6249 901.5256 904.3555 915.4476 917.2003 914.8256 904.9579 894.9216 887.7545 884.5569 883.7798 882.0532 879.5466 878.8486 875.8427 873.2255 867.7096 855.9323 843.6441 835.8244 829.84 817.4014 811.5426729166666 823.0626 836.1047 844.5287 839.7808 829.0352 815.4326 798.7682 787.3773 775.964 764.7405 751.2396 734.2015 721.4741 723.5016 741.8039 760.9134 773.939 785.0888 796.7897 812.6162 822.9533 823.7442 815.5563 803.9074 793.6962 778.3812 759.0714 740.4311 732.8776 730.8902 733.46 742.4573 757.5678 769.5461 780.7145 790.0675 800.4166 814.1111 817.8393 814.7214 813.4205 808.6609 798.8401 803.0641 816.7415 828.7183 835.2774 844.9452 851.8112 864.2115 882.021 889.5594 882.0717 874.9086 878.5519 890.5043 894.3837 899.2343 908.8274 912.7986 915.6338 918.2291 923.9944 927.9776 927.4647 928.9899 932.1919 935.9235 946.3793 958.1225 970.8796 982.8353 996.4996 1007.362 1018.419 1033.378 1040.09 1046.268 1058.766 1072.853 1088.467 1104.176 1119.109 1132.646 1137.033 1135.863 1134.597 1132.777 1135.434 1136.102 1144.342 1155.7 1159.588 1159.894 1159.403 1157.932 1155.478 1151.016 1148.531 1147.94 1146.574 1140.412 1131.0 1126.062 1121.042 1118.802 1114.025 1109.109 1106.948 1104.743 1098.921 1089.608 1080.384 1067.677 1056.607 1044.126 1026.143 1006.531 1002.817 1019.191 1016.834 1004.133 994.2218 983.5335 971.4445 957.6237 939.2448 920.6868 903.4058 887.3212 873.0049 863.0862 857.2549 859.8662 851.8469 851.5235 858.4611 852.5026 846.1971 839.8055 837.6729 842.0536 835.9912 838.8559 842.2253 840.2681 836.2046 830.0865 822.4872 814.7812 807.1105 799.4601 793.1334 785.1258 777.6497 769.4653 761.6819 755.2625 748.0384 742.381 733.6614 717.407 709.95 708.836 701.6649 691.3753 708.4603 728.714 739.7819 745.4138 748.9058 752.1287 750.7457 745.9429 736.1871 723.4363 711.921 694.202 677.3368 659.0444 638.9255 627.9894 644.1307 658.3398 673.3058 676.782 667.0575
628.7977 638.4611 650.4501 661.7783 673.4579 682.6952 692.8667 703.3243 715.0438 726.5238 733.6998 739.587 742.1763 741.0101 736.6277 727.4612 717.7382 716.1389 716.1462 711.8113 711.7018 710.5447 716.7942 721.2557 717.6669 709.6318 716.4122 714.6256 714.3079 715.7901 712.7379 715.7648 723.4951 732.8108 741.6255 749.66 754.0107 759.2917 774.1528 792.4753 804.9079 811.4771 810.5608 812.2112 817.0762 823.5354 829.7075 835.2634 839.2292 842.8139 845.7086 852.1013 858.2458 864.6282 868.9191 871.9279 884.4208 899.9688 917.5722 941.0261 960.7917 983.8185 1005.818 1012.579 1016.288 1023.097 1033.7 1042.961 1046.959 1046.327 1042.886 1033.326 1026.114 1019.803 1011.84 1004.656 1000.595 993.2366 987.8376 987.3035 990.3877 996.9156 1002.224 1006.957 1013.373 1021.155 1029.61 1037.103 1043.872 1053.133 1061.546 1066.644 1067.174 1063.088 1056.145 1049.069 1041.694 1034.286 1024.169 1014.08 1004.154 991.5737 980.2937 965.6191 955.0686 946.0415 936.2333 926.3446 920.5385 912.8214 907.1487 901.5984 899.9619 894.5638 893.121 898.2655 906.415 910.0682 910.1835 903.0576 889.9036 886.3121 880.826 879.4009 877.5155 875.4943 875.1907 871.226 870.1201 867.9081 863.6593 857.6742 847.4391 834.087 818.2548 811.5113458333333 823.4364 837.264 843.0122 836.9125 824.3753 808.5886 799.7186 790.7203 777.1307 762.5196 751.9263 742.7708 732.8496 717.9676 728.1066 745.8483 761.5694 773.5643 784.5193 800.4335 813.028 815.0442 805.328 794.6335 783.381 768.6271 750.6259 731.7822 718.1138 723.6389 735.1283 744.0198 747.4113 751.9344 763.1422 772.107 786.351 800.8214 802.2849 798.5377 796.4055 787.5182 782.0521 789.019 806.5999 820.629 829.9764 841.9861 850.7359 865.855 882.8462 890.6429 883.0009 873.8878 874.1171 884.8394 890.8277 897.9393 899.3434 900.4537 902.9546 908.8248 915.4132 917.8331 922.2689 926.6672 931.2714 945.6929 960.7578 967.136 981.613 996.8521 1005.581 1013.812 1021.858 1043.183 1055.283 1060.857 1068.805 1080.636 1092.896 1107.761 1120.004 1126.135 1124.021 1121.51 1120.879 1122.908 1126.22 1130.673 1138.737 1153.173 1157.205 1157.316 1156.225 1154.568 1152.893 1149.981 1147.648 1146.332 1144.899 1138.823 1130.234 1125.427 1122.513 1120.178 1114.896 1108.171 1104.547 1099.432 1091.758 1086.187 1080.978 1071.579 1060.466 1048.636 1030.401 1013.318 1012.1 1024.865 1023.972 1010.596 997.524 987.1967 975.5981 963.6555 946.9919 927.051 909.35 892.2653 878.1965 866.4597 864.2388 867.8568 860.7418 858.009 860.5472 859.0437 853.538 849.2849 847.5231 850.2269 847.6649 844.9044 842.5452 839.4402 835.2111 830.1152 822.4819 813.6971 805.4799 799.4736 792.1701 784.6769 776.8494 769.2247 761.7327 754.9664 748.0385 739.9592 727.9361 714.1817 706.5243 706.257 697.7061 701.5368 719.5088 731.3955 742.8222 750.4848 753.1185 756.423 753.871 748.0815 738.137 724.8889 712.0385 697.0778 681.5865 662.8911 644.4307 630.4017 645.744 658.7643 674.0642 685.5446 680.3751
623.7973 630.5646 643.0625 653.8488 665.9676 676.7308 685.9714 696.4568 709.4895 722.4365 731.6591 739.6911 745.3354 749.8453 749.4377 739.0215 731.3651 735.4512 735.134 728.7184 726.0438 722.3824 722.3197 724.7679 725.4639 724.3562 731.6895 729.4067 727.4485 724.4294 715.3107 717.5878 732.1182 741.6483 748.1248 753.4587 761.2281 769.575 782.4769 793.9788 804.6445 807.5066 809.056 811.2186 816.7387 823.5438 827.1626 830.7491 833.0709 837.1379 842.9987 850.4975 857.359 862.7725 868.8461 870.6983 876.1035 891.7691 908.8224 931.1161 959.6721 981.4217 1006.085 1013.301 1019.401 1027.526 1038.747 1047.029 1051.656 1051.349 1049.106 1041.686 1032.656 1026.472 1020.278 1014.941 1010.243 1002.552 996.4066 997.1428 1002.613 1009.774 1015.052 1019.095 1024.925 1030.5 1038.491 1047.191 1056.35 1067.527 1070.997 1072.687 1069.288 1063.764 1057.153 1050.185 1043.473 1035.598 1025.178 1015.32 1005.062 994.1846 982.3419 969.3745 957.4304 947.3544 937.243 925.8376 919.2289 911.4081 903.6786 893.8868 890.4421 887.9894 884.6868 892.6869 897.8257 902.9831 904.4634 897.37 887.5069 881.8343 879.3009 877.2952 875.601 871.3038 871.6304 869.1754 864.4169 862.8293 857.5169 852.2372 844.1227 832.7542 816.5 811.3860374999999 822.4216 837.2355 844.4844 834.5462 822.8171 807.4782 793.8665 788.2072 782.9815 775.2817 764.6785 756.2269 743.7283 727.8423 714.0688 727.6763 746.6639 763.8258 773.778 787.5259 801.0754 803.6039 795.5948 785.087 773.1436 758.6484 744.211 721.329 716.5989999999999 726.1485 730.5585 730.1996 730.031 734.745 741.542 754.8323 774.213 786.4291 785.7399 781.4655 777.3922 773.9901 784.6268 793.7066 800.6505 816.1459 829.177 839.2213 849.661 862.6722 875.3264 884.4849 878.7191 868.0408 864.4845 872.924 882.3914 887.5884 888.7177 894.0455 901.0725 906.6594 912.8688 918.1196 921.9486 927.3383 937.8109 955.2691 975.8214 983.0266 993.0598 1010.763 1014.442 1020.123 1032.596 1053.643 1073.27 1075.833 1082.997 1092.677 1100.91 1107.86 1113.346 1112.432 1108.033 1104.855 1106.733 1112.576 1122.353 1132.154 1146.024 1154.576 1156.351 1153.725 1152.179 1151.962 1151.249 1148.732 1146.214 1143.878 1141.196 1136.121 1131.805 1126.945 1123.409 1120.728 1116.932 1109.215 1102.421 1096.402 1085.944 1078.466 1073.515 1065.443 1056.031 1045.784 1031.913 1017.238 1021.091 1031.939 1029.904 1017.183 1002.705 990.847 978.8682 966.4011 951.0197 930.6891 912.9405 896.1978 881.8564 871.5536 873.3015 872.9717 867.3075 862.3649 860.3834 859.4258 856.03 852.8226 851.9988 852.0346 850.0321 845.4387 841.0354 836.9296 832.8325 828.3165 820.5212 812.2191 802.8312 795.798 789.0557 781.6495 774.2228 767.0676 760.3912 753.0848 744.5413 736.6717 721.8853 711.785 702.4877 699.7738 702.3337 716.6972 726.599 736.6425 745.1415 752.6643 757.5594 760.1089 758.7621 749.7417 740.0834 727.1807 712.1125 701.0763 684.1599 665.0456 650.958 633.4291 645.8016 661.4471 675.6193 689.897 690.8104
631.3094 630.8323 635.121 644.1577 655.5627 668.4009 679.3447 690.7813 703.8794 716.5118 727.82 737.8802 746.2509 754.3347 759.618 754.2294 749.8473 750.0359 747.7081 741.7747 736.9708 733.5914 732.6663 729.6746 732.7325 739.0182 743.718 739.1853 733.4388 728.5663 724.6451 724.6132 727.1966 738.1987 747.2585 754.4142 756.0779 761.3217 772.0747 785.3473 796.2348 807.1899 810.8535 812.8043 814.4915 819.7097 824.0402 825.8875 825.2675 830.5831 838.9116 845.5515 851.4805 858.4945 864.342 866.9632 872.1443 886.0497 905.2282 923.9116 946.6918 968.9379 992.3407 1009.191 1016.62 1026.882 1040.154 1049.515 1054.782 1054.81 1053.013 1049.358 1043.055 1035.123 1030.645 1027.292 1021.541 1013.509 1009.866 1010.514 1012.596 1017.39 1023.301 1027.966 1033.554 1039.628 1048.232 1057.36 1067.825 1076.812 1076.9 1075.353 1071.507 1065.187 1058.45 1051.244 1044.181 1035.472 1025.375 1015.947 1006.38 996.1519 984.0261 972.8344 961.9274 951.6832 941.105 929.7491 919.9477 910.6713 900.912 890.9609 882.569 879.162 878.1801 885.2247 889.3839 895.6546 896.866 890.6765 884.5849 880.8244 877.7051 874.8536 873.3127 870.6747 865.8651 864.9636 859.7924 853.2006 845.7197 840.9704 834.2468 825.6077 812.244 810.82215 816.6439 831.0505 841.1505 834.4594 820.6425 806.9312 793.9373 781.4839 769.5457 763.9505 757.5341 749.2178 739.778 732.0444 716.7951 711.5885 733.7095 749.1961 759.1248 775.2405 789.3732 791.3154 784.9637 775.6009 763.027 747.7463 734.5024 717.2045 715.0842 717.9811 718.1899 724.3542 737.0753 746.2692 740.4713 742.0316 762.3705 771.2243 766.6508 766.2203 768.3826 780.9429 800.7972 812.5067 811.6965 812.748 819.1696 828.8239 843.4084 850.4591 859.1786 867.5708 860.6159 858.7087 863.7133 870.9085 877.8426 879.879 885.2596 891.8498 896.751 903.104 911.1202 920.8082 929.6843 939.9587 954.5293 967.1163 982.468 995.734 999.8039 1013.692 1027.167 1041.908 1057.209 1070.994 1081.149 1084.727 1087.529 1091.192 1095.006 1098.348 1099.583 1095.845 1090.053 1087.723 1089.748 1102.823 1118.403 1133.914 1147.868 1152.2 1152.863 1150.352 1148.476 1147.503 1148.32 1147.866 1145.669 1142.388 1140.351 1137.311 1133.948 1131.902 1130.585 1126.368 1122.049 1118.519 1112.6 1105.373 1094.591 1081.242 1068.736 1058.311 1050.321 1041.887 1032.51 1021.986 1025.651 1036.955 1033.222 1022.941 1010.346 995.8854 981.6891 967.4335 952.3394 934.7663 916.6641 901.1666 888.2467 880.4248 880.1422 875.7621 870.6079 864.0518 859.4412 856.4266 854.6137 852.1771 852.2012 850.6023 846.6011 842.5345 838.3518 834.7548 830.1515 825.6019 818.6528 810.7681 800.9462 792.0486 785.7886 777.8571 769.3943 763.003 757.3377 748.3639 738.7476 727.611 716.3636 707.8157 707.9229 707.2979 710.5632 726.442 737.5325 742.98 749.654 758.0245 761.8967 764.3561 763.2406 754.5818 742.3271 729.7466 712.6295 699.6528 686.4703 666.8104 651.2218 634.0975 652.5892 661.6111 674.5612 692.4191 698.7214
646.7725 644.1768 640.6771 642.0364 648.4853 660.3163 674.0235 684.6014 696.3713 710.8143 723.4048 735.4384 746.1006 756.3483 765.5483 768.9362 770.1716 767.0865 759.8911 755.3865 750.3381 745.6023 743.3197 738.3063 741.9087 747.6359 749.1102 743.5611 735.3464 732.3951 739.0496 741.4025 734.5483 739.0552 742.7921 748.7288 750.1398 758.3252 772.1206 783.7872 790.7895 797.0889 799.3702 800.2268 803.9085 808.7493 816.8472 820.4893 820.7405 827.7913 832.1468 839.5638 845.2988 851.2853 857.3314 863.1916 869.634 881.5572 899.5047 917.8182 938.4701 958.6042 982.6799 998.4188 1006.537 1020.408 1036.378 1048.243 1054.098 1054.69 1053.634 1052.376 1051.077 1049.308 1046.279 1041.981 1034.308 1028.818 1029.011 1024.535 1023.884 1026.348 1032.323 1037.703 1043.211 1051.646 1059.88 1068.765 1075.503 1080.351 1080.58 1076.553 1072.185 1065.578 1059.239 1052.833 1044.57 1035.67 1026.072 1017.294 1008.159 998.0466 986.2526 975.0707 965.0604 954.8221 943.9733 933.0579 921.2865 909.5626 899.3121 890.7775 882.8257 874.2219 869.2375 875.8114 880.9465 886.5367 885.9497 881.902 879.0247 877.6631 876.5074 873.5396 871.0369 867.3864 863.7513 861.6038 857.0456 858.7736 853.5526 843.4348 829.6672 817.5968 808.2507 806.8966250000001 805.1443 820.5476 834.8713 836.795 824.3566 808.1128 796.0771 784.0941 772.5344 757.824 744.5803 739.0106 732.0647 726.1382 718.3091 711.37385 719.0563 730.7631 744.9723 763.4528 778.8031 780.4488 772.9504 764.5759 752.7891 736.9758 720.4415 712.1841344936062 715.0471 727.7156 735.1099 743.7092 755.1375 765.9102 763.8784 748.3918 750.8546 757.2205 761.9048 767.553 779.0156 797.0989 811.8101 827.3817 835.486 818.9521 813.2711 819.8293 832.9162 838.3544 843.6119 852.0192 852.6216 865.2934 875.4531 883.9035 889.3493 892.0248 892.3009 894.3495 904.0515 912.1728 919.5274 932.6281 947.5194 959.472 972.0153 982.431 990.4404 999.3785 1006.56 1013.886 1032.057 1053.07 1065.103 1073.716 1078.902 1080.356 1079.059 1079.011 1079.891 1081.127 1079.44 1078.265 1069.83 1069.459 1076.735 1096.118 1114.128 1129.526 1140.456 1143.483 1144.647 1144.0 1143.592 1143.865 1145.404 1148.457 1148.274 1145.773 1143.396 1140.654 1141.309 1141.115 1136.004 1129.806 1125.291 1120.442 1113.581 1105.971 1097.622 1085.902 1077.793 1070.177 1059.657 1051.413 1045.714 1037.271 1036.688 1041.091 1035.5 1025.22 1014.086 998.2416 982.7975 968.0935 951.5634 936.4426 920.4562 905.9441 896.515 888.252 882.4554 876.2328 870.6225 863.9385 858.4615 854.5134 851.4144 849.0007 847.1406 844.668 840.6425 837.6782 834.9772 832.3235 828.3079 822.9924 817.1729 808.1207 799.0505 789.4727 781.793 773.5909 766.4008 759.8911 751.6691 745.3013 732.917 717.7054 713.0614 712.914 717.3159 713.9885 718.5844 730.0156 743.2669 752.2262 756.2482 765.1682 767.2283 767.975 766.2946 758.2319 746.4005 733.0527 717.511 701.446 688.0932 668.5745 650.7435 637.0028 654.1894 668.9244 681.491 695.3277 702.657
660.9378 660.0699 655.3932 655.6874 657.1788 658.8827 666.4843 678.8088 690.418 705.189 719.4424 732.0909 744.2485 757.674 768.1181 776.3819 781.8859 780.7983 775.475 769.6207 762.682 756.0453 751.1696 747.9803 750.3007 753.2922 752.0574 745.2117 736.5347 741.1835 751.012 754.933 746.976 745.5673 746.7148 746.9501 752.7776 758.9121 768.3079 776.6118 782.8167 786.4973 787.8207 793.0207 797.7447 802.1034 806.548 819.3623 829.6714 834.9908 840.1055 847.5022 851.3527 852.4509 855.6485 860.9874 867.1891 881.1683 899.5781 917.2024 934.0329 952.555 971.3263 989.0232 1000.118 1016.669 1033.199 1044.194 1050.911 1051.546 1051.627 1051.456 1052.739 1056.578 1055.889 1051.011 1045.269 1041.647 1039.592 1035.797 1035.644 1037.044 1040.323 1044.689 1052.03 1060.223 1066.916 1073.115 1077.969 1083.346 1083.232 1077.486 1071.441 1064.981 1059.72 1054.212 1047.726 1038.865 1028.022 1018.252 1008.197 997.6096 986.4017 975.1214 964.4744 954.2923 943.8364 933.6254 922.9472 911.2885 901.0167 891.7371 884.6805 874.6309 863.9343 864.0957 871.9614 876.9801 878.9423 872.4142 870.1688 870.5458 872.6575 875.2814 877.0971 873.3 873.3941 868.7385 866.5062 871.5196 868.1239 855.6738 841.3376 827.3538 819.0206 807.5762 801.54925 809.6118 824.4352 834.063 825.3824 809.3298 795.4948 783.0356 771.0988 758.2565 745.2352 738.4138 734.0038 730.5087 723.4891 710.4146 705.9526 716.8416 735.5371 754.5258 767.4533 769.1675 761.7912 753.9847 743.4313 725.4036 708.6342 710.0934 725.9456 739.0209 747.1768 754.4358 764.7292 774.6867 775.714 762.4161 756.3023 761.2496 776.254 786.3253 786.1432 800.1943 818.317 835.2271 842.4445 832.0652 824.3561 823.1426 831.6709 840.5673 847.5006 856.8308 865.4814 880.1832 891.5608 901.0001 910.3809 911.1244 906.1535 906.7544 921.9879 931.6874 937.9858 948.5153 963.3428 972.8854 982.1722 993.7023 1001.591 1006.03 1014.922 1024.251 1035.16 1048.576 1058.498 1067.838 1070.479 1070.167 1065.773 1063.857 1063.134 1063.63 1062.152 1058.497 1051.234 1052.807 1069.065 1091.208 1108.97 1122.253 1126.631 1125.531 1126.097 1132.326 1136.03 1139.535 1144.515 1151.209 1152.73 1150.498 1146.871 1145.626 1146.523 1144.353 1138.701 1131.955 1126.582 1122.193 1115.44 1107.953 1100.933 1089.451 1078.086 1070.293 1060.636 1054.041 1050.02 1046.311 1048.719 1044.641 1036.858 1025.398 1015.25 999.7484 981.2627 965.2424 946.3093 935.1022 919.8361 904.9108 896.7834 889.3151 880.473 873.4077 867.5475 862.4915 857.6693 854.6513 850.7623 844.925 841.3312 839.1417 836.7275 830.9846 828.5971 827.7832 825.4714 820.6803 814.7756 805.9184 796.2372 787.4324 779.0864 769.821 762.9138 757.4208 750.2292 739.5717 724.2871 714.7875 716.6099 720.4807 722.8333 719.4073 724.5845 735.3274 747.175 758.4058 763.4591 769.6245 771.787 771.7997 769.8604 761.4193 749.5593 737.1194 722.3413 706.729 692.1893 673.3117 655.248 638.8753 655.4175 671.0609 686.907 698.4057 705.1321
673.1443 675.8351 672.1325 671.7375 671.3286 671.0976 669.6414 674.4492 685.0121 698.6737 713.76 727.5391 740.8799 755.4677 767.2976 777.8367 784.8997 788.6938 787.9172 781.1362 773.515 766.1272 759.1739 756.1295 757.3033 760.2992 757.1646 748.3225 744.046 751.0559 758.8668 760.531 752.9727 751.5505 752.6699 752.9292 759.3139 767.3109 766.7391 769.6214 774.556 780.6777 789.0514 797.6743 806.7424 819.5056 817.6407 828.1464 837.64 850.4818 852.8253 854.481 858.6017 860.4001 861.8067 865.1199 872.496 886.9233 904.5497 920.7014 935.6409 954.0834 974.2841 994.1402 999.9586 1014.512 1028.799 1038.796 1045.29 1047.373 1047.587 1048.477 1050.61 1052.67 1051.992 1050.397 1048.23 1045.974 1043.655 1041.472 1041.406 1042.494 1044.754 1049.004 1056.477 1062.016 1066.599 1071.054 1075.362 1079.675 1080.761 1076.11 1070.909 1065.816 1061.037 1056.927 1050.939 1040.944 1029.831 1019.109 1006.967 995.7031 984.4485 972.361 961.5511 952.1259 941.9321 932.4412 922.7019 912.6476 902.3635 892.9285 884.8053 875.6674 862.7458 852.4187 855.5745 863.7004 867.3611 863.11 858.4256 862.3944 866.9298 875.5067 883.2235 884.6623 885.5196 879.0433 878.5969 878.9308 876.143 864.8293 851.9685 841.4833 831.31 817.2217 797.9542 799.5065 813.3795 824.7036 825.3917 810.1866 801.3696 791.4332 778.8943 765.222 752.7219 743.4543 738.9376 732.184 726.3698 720.9906 703.334 705.3835 731.3301 748.1913 754.064 757.0215 751.1031 742.4403 733.006 711.1254 702.4373 716.2739 730.2032 744.3721 752.9264 763.0615 774.2662 781.455 781.0622 773.975 776.8701 779.418 783.1129 798.4615 801.3894 803.6322 820.9681 837.681 849.5732 840.0311 832.5721 833.5231 844.5752 853.2288 859.9844 870.6248 878.2368 892.517 907.6948 917.9784 928.7145 928.2751 922.6298 919.1362 937.8374 947.3744 951.5599 958.7903 968.963 976.1332 983.8281 993.8846 1006.111 1012.139 1017.254 1023.994 1032.379 1038.726 1046.722 1053.446 1055.786 1053.444 1049.512 1046.593 1045.251 1045.153 1042.661 1038.122 1032.188 1041.227 1065.834 1085.727 1101.457 1110.786 1112.86 1108.716 1109.248 1119.929 1126.667 1135.597 1143.877 1150.334 1153.402 1152.131 1150.082 1148.721 1147.578 1145.059 1140.089 1133.635 1127.078 1122.791 1117.171 1110.421 1103.887 1095.225 1084.369 1076.091 1067.374 1060.521 1055.29 1053.72 1052.949 1045.937 1037.525 1028.002 1017.316 1005.093 990.1369 975.6469 955.2501 944.5734 924.0251 906.5584 892.8183 883.8243 875.1343 869.416 864.3091 858.3768 854.7357 848.1766 846.402 846.8255 842.9031 840.5734 838.7336 831.5323 822.3693 820.4142 820.839 817.8362 811.5636 804.3005 793.5416 784.6255 776.9196 768.7421 762.3952 755.4232 748.4443 733.0937 718.2821 721.355 722.3575 723.4975 725.3158 725.8434 730.1885 740.4559 751.3048 760.7314 766.8998 771.0767 775.6517 775.6956 772.6414 765.2228 751.7379 739.6116 726.8567 712.1382 695.3771 677.9135 660.6682 640.7715 656.6899 673.3325 689.2784 701.8082 708.3056
682.7057 690.1511 689.0732 686.2538 684.1219 684.6335 682.0598 679.4384 682.2885 691.8053 706.8849 721.3095 736.0443 751.4539 764.4479 774.5654 783.0472 791.4364 794.6144 790.8475 784.0569 775.5879 766.9716 761.066 760.6135 765.9922 762.0085 752.7812 750.8628 756.2228 764.8733 767.405 762.7674 761.9503 763.2854 761.6074 765.5838 774.6329 777.639 784.3693 789.8791 797.8508 807.1789 817.4811 823.0554 833.2856 837.1007 837.3456 842.9827 852.6008 858.7084 858.832 861.322 866.0544 870.8149 877.3651 884.1407 890.5854 907.8933 923.1902 937.1365 952.3986 974.1338 998.2787 1000.821 1013.828 1025.563 1033.764 1039.581 1042.371 1043.238 1044.348 1046.186 1045.749 1045.765 1046.045 1044.896 1044.306 1044.345 1043.394 1042.963 1043.863 1045.883 1049.902 1055.069 1059.418 1063.497 1067.1 1070.566 1073.805 1076.406 1074.716 1071.472 1067.748 1062.319 1057.936 1051.854 1042.132 1029.968 1018.352 1004.83 994.3022 980.9103 969.6418 957.0844 948.1769 938.3675 929.3552 920.3893 911.1926 901.7386 891.7065 882.4509 874.6143 866.5175 848.1859 844.5904 853.7086 856.6708 855.801 849.7237 853.241 860.006 867.4656 876.454 884.2264 889.2773 891.0826 891.5099 893.4921 887.416 875.3746 865.3434 855.0735 840.4929 823.535 805.0152 796.6632500000001 800.8084 813.4185 824.3439 818.4238 810.6957 798.7178 786.6379 771.944 760.0527 750.3916 741.801 729.822 722.5439 715.8607 703.1941 704.1813 729.2288 738.5601 743.3124 744.7632 739.9424 729.551 719.0739 699.4067 703.3394 718.3256 732.4077 746.063 755.6935 767.7521 779.5756 788.0285 788.7673 789.6948 794.6885 799.748 795.7902 805.7951 815.9526 814.9487 827.3311 840.5367 854.6842 843.9704 839.0721 844.9888 856.4225 869.0055 876.3794 886.0333 891.076 905.6061 923.6684 935.5081 944.9915 948.064 940.1124 931.3524 945.6836 959.4944 964.1937 968.9175 976.1909 980.3411 989.0154 1001.364 1008.051 1007.174 1009.445 1016.49 1022.169 1026.702 1031.944 1036.486 1037.224 1036.054 1032.617 1027.698 1026.06 1025.633 1023.109 1017.369 1013.354 1038.967 1061.141 1078.46 1087.039 1090.842 1094.209 1097.569 1099.853 1105.888 1119.051 1133.665 1138.865 1144.883 1151.531 1152.48 1150.995 1148.407 1145.409 1144.118 1139.995 1134.361 1127.522 1122.425 1117.303 1111.586 1105.9 1100.656 1091.012 1084.602 1078.524 1069.195 1063.756 1060.444 1055.421 1047.877 1039.903 1032.741 1024.103 1013.587 1004.227 990.6284 971.79 956.1965 932.3452 914.0912 896.9102 887.6757 879.4243 872.0275 865.9999 860.2897 855.9058 846.6876 842.0936 844.4909 845.1153 840.5939 837.3782 833.4561 821.2731 813.043 813.6882 813.7379 808.7717 801.4073 791.1675 781.979 774.4915 766.7546 760.8815 754.6862 747.9456 730.3265 723.8948 727.2673 726.6471 729.7744 732.3489 732.0214 733.2452 741.7037 753.827 762.6647 769.2669 771.7758 776.5706 778.5407 773.4231 763.4455 751.9936 739.6503 727.5748 713.5095 700.415 682.5528 665.7236 643.1854 655.215 673.3073 690.5461 703.6953 710.9888
695.9435 703.3278 704.282 701.2416 698.6221 696.8334 695.5849 693.5026 690.431 691.0681 699.1724 713.264 730.1533 745.6634 759.2231 771.3438 779.7957 791.1304 798.2345 797.3096 792.9067 784.8034 774.2794 766.964 766.5361 770.059 769.8315 765.2322 761.6611 770.5536 777.0015 778.5681 776.5019 774.3127 772.1129 772.171 776.6143 782.2238 784.4268 798.3339 804.6636 818.3432 830.7767 836.5613 840.7804 845.6224 849.9947 847.6816 852.0596 854.6656 858.5341 867.246 870.2954 874.0374 881.8961 892.0848 899.6019 904.3126 913.791 927.2605 938.5385 952.0292 968.0825 984.3332 1000.336 1011.605 1022.561 1029.699 1034.275 1036.657 1039.078 1041.477 1042.119 1041.443 1041.071 1040.224 1040.229 1039.342 1040.297 1040.491 1041.027 1042.119 1043.97 1046.515 1050.117 1055.349 1060.068 1063.446 1066.397 1070.78 1074.925 1075.858 1073.44 1068.922 1062.862 1057.389 1050.583 1041.494 1028.129 1016.101 1002.267 990.7426 977.921 965.876 952.9119 943.3199 933.7192 924.0328 914.9156 907.4886 898.3878 888.2392 879.125 871.1335 863.9456 850.0193 838.8204 842.1401 846.8012 848.3242 843.9152 843.076 851.3126 860.8107 872.8045 882.9128 891.3613 898.0653 899.7531 898.7072 893.5909 885.6423 875.673 861.7295 849.2339 834.9628 817.6713 800.0588 795.3723 802.7067 821.59 829.3236 818.6025 800.4373 783.8677 769.1581 757.227 749.3083 740.6707 730.4228 721.9244 713.6533 698.3651 699.4583 716.109 724.2141 729.9407 728.5308 726.8869 712.1174 699.5915 696.7188 708.7315 728.6119 745.7486 757.212 765.4651 772.0692 781.3846 791.5283 799.9736 804.9487 811.9588 817.9388 816.8899 816.4591 825.5007 833.3474 839.6901 851.3918 857.2887 846.022 845.2266 852.3139 861.5964 876.004 888.7573 900.3887 902.1884 914.4387 937.3755 952.6478 965.2428 969.3651 957.1092 947.2659 953.5059 969.9205 978.6088 984.1198 989.8835 993.3236 1000.346 1009.02 1003.791 995.9141 996.6242 1001.818 1006.952 1011.648 1016.779 1019.042 1018.546 1017.348 1013.789 1008.959 1005.864 1005.562 1002.117 993.0796 1008.49 1035.442 1053.43 1063.12 1066.993 1069.257 1073.047 1080.776 1083.875 1096.208 1116.541 1127.286 1138.787 1149.347 1153.519 1152.664 1150.658 1147.086 1140.806 1138.175 1135.577 1132.09 1126.042 1120.725 1116.026 1111.632 1107.311 1103.292 1097.161 1092.036 1089.713 1080.907 1072.952 1066.337 1061.227 1054.347 1045.929 1037.586 1029.756 1020.711 1011.017 995.3724 976.88 960.1494 940.3251 922.8268 908.9473 901.668 890.449 877.8481 868.9444 862.8839 858.2819 850.361 835.3831 839.6533 844.3378 839.3308 834.0552 830.2871 821.6154 811.0085 805.1522 806.5513 804.6364 797.8398 788.343 780.1396 771.4769 765.285 760.1762 753.6732 745.3055 731.7726 726.2949 731.8651 730.9788 735.6395 736.8626 734.3121 733.5405 742.4512 757.678 766.8369 771.2914 771.8162 774.1231 777.2277 772.9118 760.9982 746.4997 732.6199 720.9471 710.4691 694.9476 679.2336 667.3139 649.2791 653.8 675.5412 693.172 705.5542 714.6619
713.1606 717.9335 718.1431 716.258 713.9138 710.9549 709.7006 706.619 703.8085 700.4422 699.9523 708.0233 725.9291 740.3288 753.2312 766.4196 775.8787 787.7559 796.879 798.3287 796.4355 789.9855 781.3013 772.7277 772.6703 774.6307 776.8422 778.1045 775.7631 783.1445 790.8078 789.8601 785.4885 779.5612 776.2277 782.2015 786.7433 789.8114 792.1529 803.1749 812.941 833.5101 844.4746 846.1349 849.1096 852.1481 854.8998 854.5959 859.0002 865.8195 866.6987 874.0447 881.803 887.3078 894.0212 907.1922 918.7146 925.4813 932.8318 940.5862 950.488 959.6739 973.788 995.124 1005.937 1012.546 1019.446 1025.913 1030.4 1032.259 1034.932 1037.818 1038.488 1037.558 1036.813 1035.807 1035.682 1035.893 1036.664 1037.105 1037.761 1038.771 1040.603 1042.999 1046.655 1051.42 1055.831 1059.761 1063.741 1069.918 1074.721 1077.141 1074.912 1069.086 1062.73 1056.556 1048.321 1039.39 1026.807 1013.6 1000.459 987.5745 976.2471 962.3069 950.3513 941.0312 930.7473 919.3072 908.6985 902.4534 895.0685 885.3 875.0767 866.3425 858.1804 849.1129 838.6821 832.1399 837.697 840.1616 836.9687 835.2658 845.3854 859.7266 873.4692 883.7766 891.4116 898.7074 899.1915 895.8137 891.6514 886.624 876.9594 865.0014 853.5759 841.5866 825.2147 808.0051 789.9362 796.5201 818.0515 831.7151 823.751 805.5045 791.0657 781.5948 773.4635 765.5012 755.9559 740.9806 729.9217 719.6054 701.4349 692.3457 697.5795 704.4865 716.3201 706.6595 702.7776 699.4396 693.499 704.6531 717.6273 734.9359 753.5052 770.0804 777.5609 781.426 788.3897 794.5833 803.1257 813.1113 824.2454 832.1692 835.8826 832.5443 836.9147 849.4537 852.8005 863.3625 863.1716 852.9962 851.8481 855.6809 867.7131 876.7882 890.2614 903.9632 908.2833 919.5121 944.5638 964.4655 985.1746 988.28 971.6964 964.3484 966.303 978.1995 991.0753 1001.789 1007.674 1011.399 1012.878 1008.834 997.3103 984.2382 982.0782 986.656 987.2632 992.1302 998.3254 999.4797 1000.46 998.7452 995.0577 990.3851 988.4677 987.6867 979.3273 980.9569 1007.04 1027.404 1038.848 1043.772 1046.571 1049.308 1054.655 1063.209 1073.141 1094.924 1117.703 1136.438 1145.089 1152.88 1153.222 1151.477 1149.706 1146.002 1138.162 1129.974 1126.912 1125.635 1121.824 1116.5 1112.499 1109.459 1106.045 1103.067 1101.418 1098.021 1093.892 1089.618 1080.588 1071.832 1066.764 1060.503 1054.418 1043.962 1032.791 1020.635 1008.173 994.2015 977.8785 962.0974 944.806 927.1113 915.7911 907.0001 892.3661 876.7752 866.4134 859.0212 854.95 850.0748 829.2525 835.8331 841.1137 837.2911 828.5496 822.9171 820.5414 812.4594 802.281 798.7265 798.8009 794.4052 786.238 778.3032 769.5438 764.2541 759.4024 752.2188 743.528 735.6078 730.6577 732.2436 734.4977 738.0074 737.8622 736.3888 735.237 746.6509 761.2737 770.1074 773.8834 773.3647 773.7216 776.6171 769.7823 754.8538 738.773 723.2245 713.3824 704.4944 689.7545 681.1965 669.2655 651.9704 655.8668 675.6633 692.4832 706.347 716.0862
728.106 735.1755 733.7143 730.7681 727.9862 726.3448 724.2881 718.1793 713.7183 714.946 714.1797 712.7497 722.0709 736.3665 748.5845 760.3075 771.1791 781.5207 790.4547 795.5229 795.1953 791.8445 787.5964 779.1134 776.3475 778.5443 781.1199 785.0303 785.7825 788.3734 796.6989 799.4275 794.1268 787.2462 783.6003 791.0697 792.7511 792.9195 798.9484 809.7387 826.421 840.066 845.6865 848.2161 852.4657 856.7355 860.1718 860.5425 863.2392 871.3519 874.9789 878.9789 886.7608 896.4808 906.5227 918.7927 937.5887 947.6559 953.2297 955.8204 966.2236 974.4758 985.4657 997.1869 1005.346 1009.867 1014.921 1020.497 1024.309 1028.101 1031.809 1034.193 1034.672 1033.611 1032.675 1031.675 1030.798 1031.026 1032.422 1032.943 1033.71 1034.95 1036.969 1038.703 1043.242 1048.801 1053.503 1058.967 1063.439 1069.431 1075.287 1079.395 1075.66 1068.587 1062.313 1055.138 1047.187 1037.349 1026.652 1013.815 999.3231 985.3561 973.1724 961.256 950.6577 940.9788 929.3972 917.5985 905.1564 894.9777 889.734 883.2618 873.9273 863.0748 852.6244 846.5692 840.0654 828.2231 827.6589 831.0734 827.9402 832.6284 845.545 861.0474 874.2918 883.2653 890.0453 896.0352 894.6911 890.4709 886.3925 881.4808 873.0349 862.9326 851.8203 839.5922 824.2885 807.1112 788.934 793.5026 815.2152 831.5507 829.6407 816.6004 808.8048 800.2764 789.9211 777.213 762.8619 743.7838 729.1592 719.0436 705.981 696.7716 689.9763 693.3657 699.7874 693.7819 689.1829 690.9839 698.8073 716.7437 729.1937 742.8511 762.0925 778.6787 785.5955 789.9249 794.3455 799.6232 811.2443 824.293 839.5449 850.6266 855.0533 855.6761 853.6003 852.9254 859.6103 867.207 881.057 879.8511 867.2384 866.001 879.9008 889.9159 896.4664 905.814 912.1106 923.233 946.6044 968.4508 992.0914 999.0828 986.3127 980.799 982.092 987.5628 1000.118 1013.799 1022.62 1023.242 1016.627 1004.744 991.7408 977.5161 969.4013 968.1014 965.062 967.6907 972.7947 976.1382 980.7365 980.2855 975.3201 969.8643 967.5856 966.6345 962.111 975.3445 999.3237 1014.728 1021.975 1022.892 1024.939 1028.984 1037.141 1054.182 1073.568 1097.973 1116.652 1135.36 1149.746 1155.226 1153.427 1151.193 1149.403 1146.735 1140.288 1125.094 1116.17 1115.334 1113.251 1108.968 1106.7 1104.216 1101.801 1101.442 1101.338 1100.392 1096.66 1094.183 1087.369 1078.245 1072.635 1066.094 1057.783 1047.182 1035.172 1020.71 1004.525 987.8683 972.1196 958.0689 943.9144 926.2867 913.8087 903.757 891.29 875.0196 861.7492 853.1808 845.968 843.732 830.4026 825.4843 831.293 831.7629 822.3519 814.1236 816.7794 812.6078 803.836 795.317 792.546 790.3336 784.1484 776.1102 769.0377 763.3567 758.2131 751.8784 744.8948 739.0908 733.7469 735.1339 737.6145 738.9731 740.6548 741.1716 739.2739 751.1597 764.0381 772.0428 776.0716 776.3585 777.3822 778.7266 771.0705 752.4645 738.7704 730.1254 721.4227 711.7284 702.1769 690.0435 670.916 654.0433 664.1996 679.5172 693.7508 708.7664 718.9376
733.8505 747.7905 752.022 748.3557 741.9167 740.0442 738.249 731.6859 729.2703 731.523 729.4266 725.4871 724.8554 731.4435 743.9876 756.0289 766.1832 775.3212 783.5316 790.807 792.5917 792.0311 791.0883 787.7146 782.13 781.1493 784.3104 787.1992 789.8848 792.2734 796.8311 801.7175 802.3035 799.065 795.4426 796.8062 794.9285 796.28 806.6901 823.6461 836.3926 842.0375 845.1524 848.8058 855.6212 863.0977 867.3996 868.8693 868.9507 873.3204 880.7026 886.2969 890.3961 897.9647 910.0657 925.0674 943.5607 958.8571 965.8757 968.9535 975.8283 982.3821 990.6647 997.3217 1001.602 1005.121 1009.139 1013.367 1018.231 1023.893 1028.328 1030.826 1031.258 1029.86 1028.475 1027.492 1026.502 1026.507 1027.139 1028.212 1029.222 1030.651 1032.368 1035.38 1040.19 1047.393 1053.628 1057.177 1060.281 1065.37 1071.386 1076.733 1071.627 1064.683 1059.721 1053.134 1045.309 1035.062 1024.379 1013.617 999.9252 984.1415 969.9379 959.7735 949.7753 938.8206 927.3701 917.19 905.1781 890.7454 881.7138 877.4816 872.9113 860.7549 850.4426 846.5107 839.285 829.6016 821.1729 820.1716 821.4602 831.8421 844.2365 857.8725 868.6003 877.4868 888.1783 894.5983 890.0682 884.8781 878.7999 873.4835 864.678 855.1318 844.6802 832.0348 816.7917 800.9365 784.1432 791.9285 814.9177 829.6699 836.6318 833.0511 824.9333 813.9885 799.175 781.8256 759.3209 743.8401 737.2734 729.2148 716.8237 707.4586 696.0677 689.1635 687.8436 686.3633 687.9287 695.731 707.5978 725.2348 739.7485 754.528 768.4652 785.7663 791.7966 794.9636 799.5491 809.642 823.6329 836.9832 851.1097 865.7236 874.5585 874.0751 866.0635 865.6302 877.0746 885.7767 901.3975 907.0263 891.5042 882.6945 892.0314 905.4347 916.0751 921.8038 925.4095 932.0143 948.7223 968.4963 986.053 997.2198 996.1469 998.663 999.1566 1001.84 1009.209 1021.507 1028.927 1022.787 1012.199 999.9507 986.695 972.8343 961.7044 953.5644 949.9928 948.3402 948.2837 954.1503 961.6096 962.3564 957.2243 952.0707 946.8394 946.6426 953.396 967.7298 986.8361 997.3955 1001.668 1000.166 1005.937 1020.868 1036.932 1058.572 1081.863 1106.47 1118.452 1133.601 1149.904 1155.942 1153.137 1150.694 1148.86 1146.626 1136.509 1120.368 1107.769 1102.633 1099.501 1097.729 1098.228 1096.894 1094.068 1095.589 1098.374 1099.666 1097.485 1096.026 1091.838 1084.241 1076.725 1069.047 1060.351 1049.783 1038.51 1023.424 1005.322 984.5347 964.9946 949.7 935.0941 918.812 906.8779 898.6043 887.8755 873.5234 855.9811 844.5018 838.8221 833.3356 828.3652 820.6144 819.315 820.3489 822.5756 812.5868 810.3962 809.0021 804.0685 796.566 788.4023 784.7363 781.0626 775.0543 768.2759 763.9719 757.5647 752.8068 745.9711 737.9592 734.1622 739.5086 741.2882 742.9349 745.2329 745.6578 746.014 757.029 766.3683 772.9812 777.8077 779.0989 783.1751 783.7603 774.254 759.8357 757.0893 749.5905 738.4677 725.6788 712.7873 694.0321 669.6836 656.9327 671.1986 683.0079 696.6177 711.5175 723.1119
733.3517 750.2923 764.6517 766.3781 757.7728 753.1198 751.5789 747.3443 748.0659 747.6244 742.1151 738.4718 735.7249 735.2181 741.1187 751.3473 761.9045 770.4725 777.4956 784.9164 788.5275 790.762 792.4757 793.6584 790.7773 788.673 786.9819 788.925 792.3623 796.7249 800.9736 803.5649 804.5645 803.9776 801.1064 799.8539 800.2456 809.8323 822.2629 831.2112 836.9551 842.1398 846.1732 849.4631 859.0423 869.777 874.9716 876.965 875.5956 877.3307 882.6784 889.0826 898.1468 903.5304 911.5173 923.6779 940.4255 958.1652 968.9876 972.0381 976.8437 981.5195 987.3152 991.4994 995.4965 998.7061 1002.16 1006.536 1012.964 1018.43 1023.909 1026.657 1027.75 1027.042 1025.057 1023.455 1022.309 1021.498 1021.662 1022.506 1024.146 1025.721 1027.856 1033.1 1037.327 1044.385 1050.635 1052.804 1054.985 1058.654 1063.166 1064.789 1061.748 1057.895 1054.362 1048.977 1041.532 1030.885 1020.878 1011.071 999.9085 984.0548 968.853 955.2413 945.1926 935.5787 925.3362 916.2112 906.5118 893.244 877.5812 868.3503 865.1608 858.1589 850.4438 842.5903 833.4669 827.3355 820.5918 815.0091 817.3849 828.0076 841.1763 854.7786 867.5683 879.9867 891.4565 895.0261 888.5084 882.3702 871.6128 862.2853 851.5385 844.5414 835.4874 822.3752 805.2842 792.1941 782.3933387535209 794.4539 811.6412 825.1786 838.1683 844.4319 835.1475 820.6843 803.86 787.2064 768.626 759.5784 751.6721 740.5646 732.7587 724.1512 711.8912 694.3324 684.9274 685.0194 692.731 703.0998 715.538 731.0088 746.8477 762.9155 776.0953 790.7939 797.3 799.6823 805.9168 819.3499 836.2765 852.5317 863.3818 876.9984 889.0286 885.6667 877.5305 878.4186 888.2474 895.9186 905.2904 911.7775 906.702 902.9799 908.8162 919.1437 928.8184 933.324 936.2485 941.4655 951.7177 965.7335 976.3145 983.7673 992.5568 1006.338 1013.27 1019.65 1025.057 1032.028 1033.504 1023.396 1011.877 999.4285 985.4528 970.4147 956.7232 947.3414 942.5004 939.0494 936.9202 939.8041 943.15 941.3316 938.347 936.1124 934.6188 937.7175 943.7133 957.5629 972.2475 975.0236 977.5035 989.8868 1006.419 1025.078 1045.533 1068.698 1090.434 1103.13 1112.591 1125.124 1139.379 1149.66 1150.646 1149.725 1148.07 1145.174 1133.244 1117.698 1103.363 1090.828 1084.788 1084.809 1086.656 1086.316 1085.807 1087.978 1091.44 1092.344 1094.677 1094.841 1093.058 1087.021 1078.939 1071.337 1062.037 1052.38 1041.105 1027.406 1010.57 989.7936 967.7064 947.932 929.7899 913.3973 899.6809 890.2856 881.0232 865.226 853.1964 845.3143 842.0531 836.2444 831.8211 825.4379 817.5139 812.2898 814.6569 811.3362 806.7872 804.3742 801.6548 797.11 789.5356 782.3554 776.8661 773.3248 768.3211 763.3012 756.8777 753.3069 745.8197 737.6276 738.9484 741.6072 744.5017 746.2087 749.8848 750.9575 751.2488 762.1484 773.0137 776.8492 783.6953 784.7185 789.0199 791.569 783.1625 773.1223 771.8689 759.1403 745.8 733.0353 714.6531 691.5185 666.7386 663.2318 674.3401 686.0463 700.2334 714.1512 725.6279
730.6711 748.4738 765.362 776.8732 773.4947 768.1695 767.4701 767.3414 765.4276 761.8777 754.7576 750.7456 748.1809 747.896 747.5169 751.8047 759.0508 765.8696 772.4298 778.4363 784.1218 789.1448 793.767 796.9604 797.237 797.3464 793.7156 791.6863 794.626 799.5781 806.1339 808.8477 806.3478 804.2902 803.1 804.0073 806.2367 819.6155 833.7172 838.6626 840.6912 844.139 847.2167 851.4691 861.7547 876.1043 883.0775 885.1891 883.593 884.0513 886.4591 891.6601 901.5088 909.0027 922.3021 936.7303 950.4468 963.0862 971.3739 972.9437 974.0476 976.1706 979.675 982.5397 987.1968 990.257 993.2686 1001.066 1007.006 1012.099 1017.476 1019.275 1024.044 1025.827 1023.063 1020.304 1017.509 1015.508 1015.256 1016.424 1017.994 1020.22 1026.0 1030.078 1034.066 1038.164 1042.823 1046.291 1048.841 1050.606 1053.053 1052.474 1051.142 1049.573 1046.748 1041.53 1034.797 1025.896 1017.486 1007.175 996.153 983.4788 970.0061 952.5133 937.9327 927.864 921.4425 912.8323 904.7123 897.0015 882.7996 867.2252 860.1752 855.1401 851.4478 843.7187 836.3192 829.3763 823.3332 814.3564 812.7175 827.3284 842.6567 857.8607 871.0239 882.6459 890.5814 893.5182 888.0593 882.0308 874.8519 862.3785 847.3281 831.6071 820.7717 809.7303 793.287 781.156 781.9521 794.0985 805.9127 820.3687 835.0829 847.1976 844.9453 829.653 815.8733 801.6571 786.7203 773.7618 763.6569 758.1403 748.7172 733.5496 714.5691 692.989 682.2875 685.1561 696.5258 709.2629 720.8782 736.7286 753.4385 769.7357 784.6902 794.6649 798.3651 803.8266 811.8837 826.4435 848.0164 870.3692 881.9255 889.7927 894.7716 887.5382 883.7064 877.4351 879.1143 886.0677 895.7329 900.7919 905.427 910.0908 914.0729 919.3351 925.3879 927.9655 929.0082 937.9952 948.9897 954.4415 956.3692 963.5463 980.5871 998.8211 1014.223 1029.429 1038.407 1041.042 1036.442 1027.389 1013.853 1000.482 985.9485 971.0792 955.5037 941.0841 932.486 930.2646 927.5019 927.3573 925.6658 925.181 924.7804 924.131 926.6836 930.7392 931.2775 944.7656 950.7536 962.8384 978.3318 996.4657 1016.792 1037.769 1056.909 1069.291 1077.495 1084.307 1096.911 1107.94 1124.498 1138.243 1146.451 1150.405 1148.109 1143.972 1136.421 1122.25 1106.141 1090.911 1074.593 1070.206 1070.284 1069.935 1074.077 1077.796 1080.155 1077.816 1088.403 1091.226 1092.227 1088.635 1080.541 1072.256 1063.118 1053.334 1042.246 1029.446 1016.047 998.4962 977.0366 954.9577 938.1821 920.1879 902.8273 888.5573 874.4443 860.744 859.6193 855.2318 850.6553 846.4467 841.6938 832.1473 821.067 812.5385 807.6337 806.1702 800.951 797.259 795.493 795.4953 791.4926 783.1662 776.8073 770.5495 765.2625 761.2089 755.6119 750.6351 744.6225 739.3945 743.5648 745.3527 749.2039 752.9531 755.7438 753.7947 756.4128 771.5013 781.158 784.1793 788.4371 794.9437 798.7592 801.8779 798.3979 791.6037 781.2126 764.2379 749.4272 737.6437 718.4952 696.9353 671.5339 665.7896 676.8058 688.5042 702.3438 715.9713 728.2394
726.6776 743.5104 760.3931 774.2252 782.464 782.7885 785.1918 788.0665 779.8859 774.1368 768.6508 764.879 761.4037 760.4417 760.4633 759.0117 761.3632 764.6548 770.0197 775.1105 781.6271 787.6889 793.8492 798.0137 800.5289 802.424 802.6631 800.6116 800.2563 803.4765 810.306 814.5349 812.7735 810.2648 810.161 812.7012 818.3305 829.0237 839.9186 847.8758 849.85 850.2427 853.3524 860.1724 872.7716 883.9565 888.723 890.6855 890.0954 890.4746 891.8757 896.4808 904.0026 917.5284 931.2839 945.217 956.1242 966.0428 974.8425 975.1833 972.5599 971.0319 972.0074 972.7577 975.8245 978.3261 987.4121 995.2104 999.8171 1004.688 1008.97 1013.28 1021.722 1025.958 1022.415 1017.386 1013.202 1010.123 1009.32 1010.316 1012.126 1015.632 1021.978 1026.216 1029.105 1032.157 1035.462 1038.84 1040.862 1041.877 1041.5 1041.449 1040.542 1039.338 1036.479 1030.929 1026.165 1020.338 1011.56 1000.527 989.998 982.5728 969.0586 952.2289 934.6381 921.2573 913.9039 907.4363 901.4313 896.5502 888.1069 875.4692 866.0373 860.1691 857.0309 850.6514 843.4469 833.8538 824.4361 813.4949 809.2934 824.8337 841.4413 856.1247 868.6518 879.0463 886.3774 889.7465 886.2472 879.701 875.5724 866.8323 851.4302 833.9067 818.7932 803.2734 788.4523 774.3509 778.505 789.7145 801.7561 815.6152 830.6417 843.3973 848.9293 841.3123 827.0372 813.0908 799.7087 787.357 776.6681 764.9465 753.84 736.1721 714.1205 692.3165 681.5302 683.5575 698.1138 712.7736 723.3042 736.2815 752.6236 768.0024 781.7278 787.3207 792.1619 799.4553 809.7372 828.2979 852.5525 877.6309 896.0067 895.0143 886.9886 884.1557 874.6539 862.7415 861.3532 872.0574 881.8989 885.123 886.936 893.8773 897.2057 901.9575 908.067 909.4156 912.2341 923.538 935.6441 934.5805 936.1628 949.6373 970.8051 988.8301 1009.165 1027.042 1038.217 1042.957 1038.119 1029.18 1015.391 998.1041 980.9914 966.1929 952.1389 936.6237 926.0407 923.5142 920.1381 918.3976 916.8992 916.9419 917.041 917.46 921.012 922.0578 922.1473 937.2775 953.2919 972.494 992.9421 1009.159 1021.403 1035.079 1045.421 1050.439 1059.402 1075.479 1081.854 1096.132 1109.603 1127.245 1143.694 1149.451 1146.549 1141.396 1133.974 1123.908 1110.317 1092.147 1076.506 1062.415 1053.78 1057.399 1059.764 1064.513 1067.339 1073.328 1081.846 1086.828 1090.153 1089.527 1081.834 1073.097 1064.808 1053.317 1042.133 1029.731 1017.242 1002.195 984.4829 963.8079 950.4577 929.7166 910.2671 898.7912 884.0031 876.7931 870.3381 865.0289 862.9769 856.3529 847.0033 836.8723 824.7006 815.3402 812.5937 808.1147 800.6746 794.2026 791.1569 791.9548 791.5458 782.5732 774.7562 768.4863 761.3269 757.403 754.9387 747.8074 743.5081 741.5888 745.179 749.0613 756.1115 761.4575 762.8179 758.7105 765.8709 780.0788 786.2532 791.8832 794.982 801.4083 807.1365 808.355 804.7618 798.099 787.0367 770.2311 755.9371 743.7886 724.3306 703.4697 681.1221 671.0084999999999 672.2669 688.1545 701.7319 716.0773 729.6749
720.8876 737.849 754.4659 769.6564 780.5681 788.7608 797.6692 800.5008 793.0737 786.1541 783.4016 780.3909 776.2528 772.6862 770.5686 768.6974 768.0054 768.4434 771.1617 775.3141 780.8755 786.7573 792.9737 797.6447 802.2627 805.527 809.1454 811.7058 810.9268 811.8867 815.5891 819.1466 820.9753 821.1968 820.245 823.933 833.0445 840.0654 847.5661 856.7001 861.3875 862.124 864.9694 874.8268 887.1357 894.1144 895.9441 896.735 897.7068 897.1617 898.7673 901.898 909.4719 924.6174 936.4953 948.3431 957.473 965.8342 974.7457 976.7412 971.75 966.4695 964.6132 964.1868 964.2131 970.8863 980.6743 987.967 992.4471 997.1158 1002.157 1007.429 1015.426 1020.254 1020.774 1015.322 1009.596 1005.687 1003.306 1003.838 1005.555 1010.233 1016.181 1020.375 1022.811 1025.684 1028.721 1031.073 1032.172 1032.254 1031.296 1031.131 1029.856 1028.147 1025.214 1019.647 1015.447 1010.876 1002.372 991.4978 983.1608 975.5762 963.9542 951.0497 937.82 925.8195 910.6485 902.347 896.0878 891.2087 885.6177 881.1567 874.3791 867.8902 861.618 853.6334 844.0224 833.229 822.8526 811.2621 805.2781 819.0143 835.0404 849.5941 862.2662 872.9003 880.6375 885.1333 882.6703 875.6987 871.8425 867.5558 856.4775 843.998 826.6556 811.4261 796.2258 778.7703 771.4147 783.1531 795.6866 809.0911 822.6368 835.0693 846.2247 845.2027 832.0966 817.3926 803.9557 790.3665 777.8627 763.2936 749.566 735.8591 718.6245 701.6509 683.7145 680.7058 689.116 705.8688 714.1972 727.2657 744.7326 759.3628 771.0434 776.9099 786.0316 794.7062 800.9357 821.7611 847.5046 872.8704 886.0969 878.2685 874.1538 870.2403 861.3712 848.9736 844.0317 856.9973 865.3589 867.4899 867.2764 878.2015 881.0317 886.3972 889.9125 888.1939 894.7184 909.3052 915.2767 911.4025 920.7167 943.8244 960.5499 982.7095 1006.873 1020.132 1030.194 1038.856 1039.675 1029.764 1016.488 998.645 980.994 966.1922 951.4064 938.34 926.3063 920.6973 916.8752 914.5027 915.6537 914.9861 912.5925 912.5295 913.3545 915.8575 921.5823 939.825 961.9379 983.7678 998.8291 1005.076 1010.284 1019.919 1023.366 1031.338 1050.6 1070.199 1074.361 1081.426 1099.924 1121.45 1140.434 1145.983 1143.136 1137.691 1130.47 1121.671 1108.54 1095.082 1082.628 1069.296 1054.443 1044.383 1050.603 1055.574 1059.883 1066.46 1073.892 1081.332 1086.897 1087.313 1082.442 1074.644 1066.513 1054.035 1041.007 1028.273 1016.46 1003.037 985.6842 966.343 953.03 934.0247 914.3994 900.8477 897.5475 890.8231 881.65 877.3777 872.8452 864.1169 851.8002 838.7282 828.2996 825.3105 824.3561 818.2216 811.1548 803.341 794.458 789.7062 789.7344 780.6501 770.9649 766.4482 761.2733 757.7316 757.1362 751.4559 748.0096 743.605 745.402 752.2111 762.3015 768.3458 771.1035 769.5006 776.1657 785.1859 789.4197 795.6448 802.3896 806.9457 811.454 811.0734 807.97 799.8095 790.9875 775.6792 762.0023 748.9772 729.0111 708.8379 693.1337 676.2274 671.3994 685.9098 699.2999 716.8507 732.4358
716.3233 732.1985 748.6227 764.4485 775.8331 785.2446 793.9713 799.7861 800.5154 797.0156 794.1909 790.7613 788.3773 784.7334 779.4792 775.777 773.8335 772.8002 774.8192 777.8012 782.0123 787.344 792.78 797.8742 803.1602 807.9887 812.9839 817.7532 820.4933 821.4045 821.4856 822.9426 826.8268 829.2203 830.1346 834.2047 842.7382 850.0596 857.3699 866.0026 872.7364 875.5978 880.2313 889.845 898.1055 902.3381 903.96 904.6536 905.0944 904.5413 906.416 912.7198 919.2606 930.106 939.9753 948.922 956.577 963.3466 970.4138 974.0956 969.27 962.7854 958.413 955.0935 954.652 963.8915 971.6023 979.7445 985.1168 990.1116 995.558 1001.837 1008.014 1012.118 1016.996 1013.063 1006.392 1001.423 997.8383 997.366 999.7692 1004.396 1010.083 1013.767 1016.343 1018.806 1021.159 1023.216 1024.13 1023.536 1021.43 1020.336 1019.985 1017.57 1013.577 1009.276 1005.782 1000.368 991.6077 982.9513 976.3076 967.819 957.9444 949.413 939.67 929.7563 916.6143 902.5305 888.9962 883.3364 878.6503 875.7507 871.8781 865.4032 858.7157 851.1475 838.3307 824.7546 816.9036 807.6886 800.2249 811.0377 827.652 842.5303 854.3231 864.7013 873.5214 879.0649 878.4653 872.545 867.4034 863.876 858.9201 850.7895 837.6221 823.2813 804.8475 786.5503 770.2734 772.4021 786.5532 798.8337 810.8036 824.2929 839.176 844.0726 829.0377 812.9634 799.0115 783.8984 771.6589 757.6617 741.5597 727.6094 714.5495 699.9868 687.1966 679.0372 680.4123 693.4852 708.22 722.7546 737.7947 751.3444 756.4279 762.5845 773.994 781.9308 792.2812 804.4855 835.3607 863.0383 870.5113 862.4579 858.5945 854.2998 846.099 834.5981 827.9055 840.6912 848.4057 850.0451 851.6031 863.8135 863.6088 868.7982 870.3275 868.2809 880.7362 893.3408 892.129 894.7562 912.2952 932.8146 948.8591 975.8487 998.7314 1010.823 1020.37 1030.264 1036.164 1030.57 1017.599 1003.717 988.5618 974.5329 958.9012 943.8281 928.9185 919.1095 915.8156 914.6666 913.8075 917.0138 914.175 908.343 904.4139 912.9781 925.1755 943.8011 964.6038 981.9385 986.2688 983.7358 987.7224 997.0681 1004.125 1022.286 1044.38 1054.103 1060.377 1073.008 1093.308 1118.183 1134.927 1140.112 1137.18 1132.082 1123.867 1115.196 1102.522 1091.641 1081.326 1070.417 1054.534 1037.82 1041.772 1050.024 1053.69 1057.75 1066.198 1074.984 1082.498 1084.896 1080.424 1074.573 1067.424 1054.223 1040.482 1026.624 1014.583 1001.36 985.3509 968.3181 954.3824 938.9661 923.0823 914.4952 911.3115 900.693 894.3026 886.9788 879.0181 872.0876 861.3223 850.4969 841.4557 839.4257 833.0398 824.7681 817.4493 808.8642 800.454 794.7202 788.4426 781.8915 776.9087 768.9484 766.0248 764.9521 762.525 761.0164 756.2334 745.5831 746.7517 754.4755 765.8683 772.6888 776.2339 777.951 780.4812 788.2648 794.5798 800.7684 807.9142 812.5696 813.2311 812.0779 810.1046 799.9615 789.9143 774.2736 759.9065 749.7339 731.9375 712.9385 700.3834 688.5775 673.9647 679.8342 693.2889 712.9532 735.2669
715.9421 727.0922 745.4711 759.2422 770.6195 779.075 789.2236 797.0847 801.6519 802.5493 801.0366 798.2813 796.2979 794.3675 789.7473 784.9188 780.9755 780.6584 780.1808 782.4407 785.5204 789.4871 794.4719 798.6276 803.5333 809.356 815.7118 820.719 825.744 827.7271 829.0505 830.1227 833.5777 835.6685 842.2645 846.7843 850.6651 860.4956 869.6475 879.4568 886.8418 892.1173 896.3745 901.2531 904.423 910.0309 911.1832 915.1595 915.639 916.4359 918.3432 924.8701 929.3129 935.6697 942.4808 948.8448 953.8552 958.5713 963.7938 968.4794 965.1177 958.6411 952.7828 946.6799 946.5806 954.6021 962.1135 970.1394 975.8572 982.1292 988.2856 993.8533 998.7496 1001.325 1007.131 1006.837 1002.768 997.6097 992.3269 989.8453 992.4381 997.2817 1002.753 1006.417 1009.313 1012.279 1013.786 1014.789 1015.215 1014.325 1012.743 1010.51 1008.934 1006.874 1003.86 999.4974 994.0844 988.035 982.1898 975.7974 969.2105 961.9795 953.0098 945.5242 936.2611 927.0106 917.3778 906.2924 890.8986 880.3364 872.9594 867.5504 866.8817 862.1727 856.036 847.5499 830.8047 817.082 810.2563 805.4042 797.7215 802.1049 818.3823 830.0693 843.0662 855.262 864.7747 871.6426 874.0919 869.8658 864.3906 859.5078 855.0335 849.4526 841.5851 828.8689 810.7125 794.4905 778.2582 763.73 773.8757 785.3132 797.646 814.3096 832.0834 840.5627 825.0536 805.6823 786.7822 773.2712 759.3619 748.3389 732.9802 714.3609 706.8094 699.7552 694.1353 681.9443 676.8023 683.0425 699.2045 714.4724 728.5395 735.2718 736.1435 753.5941 769.5074 776.9335 788.8901 800.0383 829.8055 849.9092 853.6426 848.5386 842.6905 838.029 829.543 819.0988 814.6688 824.2738 836.6889 831.217 838.5552 846.624 845.4252 850.256 848.1979 853.9239 867.7715 871.9277 870.3497 886.1312 907.3945 927.5285 950.3466 971.5737 989.3973 999.1464 1008.208 1019.739 1029.129 1028.223 1016.065 1001.279 985.3062 970.6259 957.4412 944.4061 931.1201 918.2352 913.9604 914.7117 911.3713 914.0106 914.1991 902.4561 898.9023 910.7538 922.6293 941.0396 959.8297 966.7113 965.2935 962.8259 964.9739 972.239 991.86 1014.457 1024.981 1029.768 1043.999 1068.367 1089.117 1110.303 1125.268 1131.515 1129.642 1124.15 1113.649 1104.881 1094.355 1083.457 1073.61 1063.858 1048.946 1031.711 1031.48 1039.745 1044.209 1048.601 1056.721 1067.482 1076.839 1081.642 1077.399 1073.248 1066.861 1053.541 1038.955 1023.966 1010.928 998.1539 982.5541 967.8507 955.0196 945.4559 935.8696 928.5005 923.6766 916.1291 908.4287 899.3292 892.7368 884.7737 873.1975 864.2216 856.8237 845.4722 835.0577 826.4734 818.2971 811.0181 802.8713 796.8414 791.0962 785.2452 780.1996 775.5647 770.627 767.4951 767.8145 765.3942 755.1594 747.9824 749.1945 755.9231 768.866 774.2797 776.8151 779.7396 784.0721 789.4516 798.5685 807.631 812.9545 815.9154 815.4235 813.1474 810.3228 799.7689 783.8062 767.97 750.938 739.7635 727.0312 713.36 702.8754 694.499 684.411 676.4509 696.2483 716.4703 736.3501
721.0176 728.0204 743.0966 755.3812 765.2631 773.3513 782.2382 791.6305 798.2163 800.9768 802.6534 802.995 801.346 799.8548 798.3958 796.1923 793.9385 792.2193 787.4265 785.5311 788.1855 790.8534 796.159 801.1655 806.2647 811.177 817.9125 822.8729 829.3172 833.2863 836.8756 839.3499 843.1103 846.9379 853.8949 858.0895 862.7658 874.25 884.8486 892.4346 898.209 904.0573 907.2668 908.7625 909.1657 913.5831 917.8887 923.5879 925.979 928.4781 929.841 932.4761 936.462 939.2064 944.0946 947.8628 949.8255 953.027 957.1835 960.6613 957.9758 953.0243 946.9751 939.77 938.9641 945.044 953.5118 958.6531 965.3429 972.7111 979.1972 984.4888 989.1992 990.3864 993.1342 997.7302 998.44 994.2929 988.6727 983.6466 984.5979 990.7327 995.3128 1000.129 1002.007 1006.02 1006.996 1006.368 1006.181 1004.893 1003.73 1002.222 999.7494 997.4396 994.542 990.6454 985.6835 979.8289 974.52 969.2199 962.7822 956.424 947.9609 940.9351 932.689 923.8646 915.5445 905.2415 894.4143 883.8876 873.1223 862.6804 858.1251 856.9165 851.6939 842.496 827.6878 815.824 809.914 808.6874 799.7618 796.9577 808.6311 823.5387 835.411 846.0126 855.9983 865.3418 870.899 867.0316 860.476 855.3649 850.3419 845.412 839.4385 831.726 818.1285 802.7761 787.5649 769.7166 762.5837 772.1384 790.6827 808.9285 825.3524 835.4199 824.3133 805.5756 785.1287 770.4194 761.0015 749.2623 736.4961 727.1607 719.3422 713.278 706.5513 692.1019 678.3606 676.6124 687.8323 704.5242 714.2847 716.071 728.3522 747.9667 757.6243 766.7452 786.4487 802.6481 828.6152 837.4979 839.3278 837.2109 829.7466 823.2885 815.2526 805.4446 803.8494 816.0583 826.6706 817.4355 825.2798 830.2228 828.5812 831.7001 830.808 840.8877 848.0361 853.599 863.9865 888.048 908.9086 930.9252 950.878 966.3207 977.8367 985.2621 997.3694 1011.722 1021.605 1021.282 1010.99 997.746 981.3176 966.0874 953.5059 941.6298 930.1088 918.0116 912.4002 911.1428 906.6016 908.0337 907.4828 894.9843 894.3283 904.984 913.2013 930.4825 946.5736 950.1758 945.9754 941.8002 946.2729 965.25 981.7443 992.9414 1001.753 1021.516 1043.979 1062.742 1083.245 1099.13 1113.504 1120.228 1119.554 1114.472 1104.1 1094.589 1084.788 1073.249 1064.594 1053.547 1039.717 1027.682 1020.183 1026.183 1031.76 1038.827 1048.235 1060.744 1071.298 1077.09 1073.183 1070.324 1064.931 1051.668 1037.025 1022.018 1007.488 993.1971 978.1475 964.9683 953.4044 945.8283 939.1483 935.5389 933.0594 926.9464 919.4547 910.8995 901.9632 890.5678 877.9852 867.5529 858.7863 848.6658 836.2643 827.2661 818.5094 811.3358 802.8165 796.9553 790.416 784.1826 779.425 776.0912 772.0954 768.9291 769.6934 767.8826 756.504 749.4884 751.6744 759.0693 771.2041 774.5305 777.2462 780.761 788.2067 792.461 800.4588 809.2754 815.4097 818.5029 816.8152 812.9498 809.6096 800.2727 777.5468 759.0497 744.3906 730.0325 724.2965 712.663 704.3954 698.9653 691.3616 678.1238 700.7341 724.5607 736.8489
724.9255 733.112 741.8419 751.3177 760.2543 768.7633 776.8749 783.7744 790.2827 795.2921 800.2906 802.6893 802.8317 802.9794 803.7618 804.9233 805.5836 801.987 796.3551 790.9363 791.4346 793.7671 796.8898 802.8204 809.7548 815.2092 820.9832 826.5273 833.7976 839.4354 843.3722 846.2269 850.6003 856.5571 862.7581 867.079 875.8036 886.3899 896.3223 901.2289 904.0422 907.3801 911.0571 912.2919 914.0209 915.5213 920.6069 927.6602 931.8267 933.8832 934.1699 935.6674 938.1966 939.5999 941.8075 943.8171 945.0862 946.447 950.4589 952.5392 950.4533 945.5339 938.8541 931.2952 931.9503 937.1778 942.3787 947.5403 955.5682 962.5871 967.9787 974.996 978.7494 979.8472 981.3311 983.9322 988.4983 988.6572 986.2409 978.5353 975.9422 983.6492 988.7397 996.4446 996.8939 999.5875 999.8427 998.8075 997.4221 995.9517 994.0767 993.0403 990.8763 988.3577 985.0058 981.7039 977.8669 974.1104 967.387 961.4423 955.4148 950.0205 942.2541 935.5047 928.2149 920.1867 912.856 903.7234 894.6248 884.1276 872.9254 861.2343 849.5558 847.2546 845.1099 838.1368 828.1765 816.9477 810.085 806.3859 798.7782 791.2455 803.3713 816.4578 826.6128 835.4368 845.9 856.5873 866.0931 867.0508 859.3364 852.0851 845.2542 841.7118 836.8572 833.34 823.2469 807.3333 790.68 775.134 760.0283 767.0926 787.9557 803.6138 816.3036 827.3208 826.8856 809.0095 794.794 784.2648 774.9203 764.1876 754.3603 744.8681 735.1749 729.0667 721.1387 702.1366 684.2056 674.7897 679.3029 690.1935 695.3673 707.1379 727.0671 728.811 746.035 764.4655 786.4187 806.8408 821.5358 823.5104 821.6787 819.8013 817.3502 811.6974 802.4329 793.4198 797.1763 810.4666 811.9108 805.6772 811.5426 818.824 814.0469 813.1128 818.2565 824.7586 830.7612 851.2188 874.6423 897.2393 911.7343 929.7178 944.138 957.7204 964.4127 969.6959 986.7921 1002.127 1012.121 1008.785 1000.251 989.9151 975.5066 960.676 948.2607 936.9029 925.574 914.7764 908.8853 905.2289 901.238 902.4313 899.9666 891.2253 887.1449 895.571 898.1739 916.5693 927.1432 927.1902 922.7197 922.0829 934.6138 955.6787 964.8123 971.7866 992.1986 1015.55 1035.639 1053.601 1070.339 1085.757 1098.571 1106.605 1107.432 1103.13 1093.734 1084.929 1073.978 1061.052 1052.047 1042.663 1032.095 1020.5 1007.72 1014.367 1023.267 1028.52 1042.477 1056.937 1067.386 1072.504 1067.915 1063.58 1061.41 1047.997 1034.539 1020.427 1005.801 990.1677 974.4061 958.9685 948.8488 942.309 937.9294 936.9547 935.04 928.9893 923.2715 915.0099 902.0352 891.0696 880.8553 869.7276 858.9022 848.8273 837.5743 827.9628 819.4472 811.546 803.7097 797.0946 790.8505 784.5231 779.3665 775.4898 772.4288 769.7277 769.4017 769.1532 759.4659 750.9305 753.95 763.0291 772.3874 774.8958 778.1205 782.9412 789.3985 795.6497 803.2499 810.9606 817.6548 820.5273 817.5887 811.7731 808.4976 797.3664 774.5977 754.3484 739.1714 726.7256 718.3189 711.4055 705.8391 706.4277 693.8778 681.6635 701.4157 722.6241 734.1914
724.0248 732.1104 739.8462 748.2553 756.1033 765.9741 773.6442 777.5939 783.0112 788.3721 794.2748 797.408 801.2211 804.6643 806.4447 808.1589 809.1935 807.3158 803.4892 798.2596 797.974 800.3928 801.1494 803.3701 812.2054 819.606 824.8326 830.9485 839.4891 845.5159 849.3962 852.1362 857.1284 863.1163 869.3928 875.5361 885.6741 894.9495 901.4738 905.0767 906.9294 907.3834 909.0933 910.4633 913.8214 915.3375 919.9237 928.3249 933.3842 933.9263 934.1465 935.7427 936.6295 936.5887 936.4534 937.6781 939.7014 941.2327 943.1735 943.8547 942.2453 937.4061 931.7852 923.1575 922.4376 928.0765 932.3144 935.5596 945.275 951.3843 959.1965 965.8719 969.9913 968.617 969.4211 972.6666 975.2255 979.2012 977.5784 970.139 967.3291 975.1613 982.5574 987.5665 990.6926 993.2004 993.0585 991.5817 988.8599 987.1528 985.7796 983.6775 981.2441 978.4517 975.8568 972.0838 968.6336 965.7101 960.0891 953.1921 947.4453 942.2747 936.398 929.8217 923.2134 915.9483 909.1555 902.1857 893.5068 882.794 871.7313 858.7946 848.4018 839.5868 836.663 832.7395 827.3057 817.0607 808.158 801.419 796.5628 788.1988 793.8107 803.3922 814.282 823.8204 834.1634 845.6378 856.8428 864.9583 862.5635 852.1306 841.0593 835.9164 833.7444 831.6423 824.5494 809.1549 791.1768 772.4517 755.7467 765.5463 781.5898 794.3262 806.7373 818.1831 828.1823 822.0583 811.4748 803.0481 791.0729 779.2784 772.0396 761.8764 751.4797 746.9587 733.0568 714.627 696.5827 679.9011 674.2717 681.0861 686.9606 702.3339 709.6872 725.306 748.5093 772.7275 793.3931 802.0818 811.6722 810.2649 805.2875 807.2247 806.3496 801.6709 787.6686 781.2849 794.3789 803.7759 800.9314 791.6872 796.3834 812.6581 802.3918 800.9869 806.5324 816.8715 838.8306 861.1704 881.6829 898.2915 909.4544 919.8422 934.3702 944.7264 947.7276 954.2479 971.3511 989.1711 999.7517 993.4286 985.4321 976.7449 966.1347 954.0486 942.2038 931.2205 919.2772 911.0029 905.0498 900.0919 897.5702 897.1547 897.2087 892.6362 881.7717 882.0886 880.8427 898.3015 905.5547 905.8609 902.3053 905.2361 923.2729 939.1075 946.528 964.1105 983.246 1004.345 1022.953 1041.486 1055.62 1070.569 1082.835 1091.523 1094.035 1090.609 1082.502 1074.39 1064.835 1055.194 1045.583 1034.105 1021.453 1009.087 1000.069 1007.074 1013.327 1024.101 1038.421 1054.957 1067.682 1074.881 1066.745 1056.952 1052.199 1039.534 1029.555 1020.071 1007.213 990.2493 972.3769 954.0973 939.7838 934.433 934.9444 936.5865 933.2051 928.2817 922.9329 913.96 901.1303 890.1627 881.2911 871.7405 857.0897 847.5983 839.1356 829.2695 819.0801 812.0736 805.1122 797.5845 792.2808 787.5954 781.5956 775.6838 771.8708 769.2787 768.4965 767.3436 760.3839 752.7531 757.1072 766.4473 772.8795 776.119 779.7148 784.916 789.9737 797.0875 805.2612 812.7426 819.7621 822.6808 818.1585 811.3111 805.2749 789.5778 769.3275 754.4661 736.0663 727.7964 721.5222 716.8223 711.63 706.7059 690.7153 687.7177 706.7733 724.866 734.8188
722.374 731.1403 739.7624 747.3834 754.108 765.8118 774.0732 777.6183 781.6646 784.7599 787.6644 792.6354 799.8132 804.5925 806.8899 808.1438 809.2214 807.553 805.3168 802.5533 804.1994 807.1513 809.8898 808.9164 815.0416 822.4908 828.8912 836.103 843.5209 849.5588 854.7538 858.4713 863.8355 869.6708 876.35 884.1119 892.9071 899.9553 902.9731 904.8911 906.4881 905.8964 904.195 904.9008 908.2356 911.9712 917.3917 925.8795 930.8112 931.0865 931.4716 932.4866 932.356 931.8606 930.2611 930.9576 933.4565 935.3146 936.2147 935.0743 933.2695 928.7186 925.1952 918.5184 909.5988 916.4288 921.799 927.1973 936.4355 945.8089 953.6315 959.0272 961.7188 957.4344 956.8531 959.4803 962.994 966.6503 965.7625 959.866 959.085 968.5656 977.2515 981.5543 984.7454 987.3704 987.293 985.6872 982.3882 979.6951 977.2314 975.3643 971.9471 970.2508 967.7823 964.889 961.2145 957.6951 951.7423 944.9303 938.8709 933.7721 929.2385 922.9595 917.0167 911.4216 905.0026 898.109 890.7278 880.6123 870.3986 860.1264 851.8042 840.2607 830.9351 826.4681 822.7065 814.1914 808.6812 808.9139 805.0797 793.9053 781.289 790.1135 802.7612 811.9298 820.7544 835.1569 845.0078 857.5246 863.9399 855.238 841.9535 831.851 827.064 825.5641 821.1239 809.2789 791.7623 772.5847 754.4607 759.1839 771.6618 783.2883 797.8525 811.5886 824.5173 827.5073 819.851 814.557 809.4828 798.4402 788.3567 774.6565 768.3687 763.3484 745.8442 728.5806 708.4117 693.644 678.9567 671.8713 677.3912 688.1724 701.9473 725.4973 752.0859 774.4438 783.9807 790.5724 796.5835 799.2375 801.2983 802.8752 802.9267 794.4874 781.3949 770.4802 782.1768 792.9704 788.3583 776.4267 790.0069 798.7883 791.578 789.2755 800.5527 817.1223 837.0389 855.6896 875.0062 889.903 894.851 909.1341 922.7661 928.0522 927.5676 939.4442 958.0393 977.7874 985.0092 976.2925 968.1333 960.0239 953.1045 944.9659 933.9861 924.4445 916.6815 910.944 904.0312 897.8259 891.4145 892.0415 895.2048 892.7103 882.8126 871.8629 864.8066 874.0037 883.3289 889.9608 887.5305 890.7861 908.4464 917.1621 933.4644 955.7889 974.2709 990.9479 1005.821 1024.328 1039.149 1055.103 1067.094 1074.213 1078.813 1078.244 1070.094 1062.635 1054.604 1046.311 1035.558 1023.068 1008.824 995.9209 988.9926 1000.086 1013.35 1023.726 1035.624 1049.136 1064.076 1073.983 1066.176 1053.32 1037.48 1026.144 1018.272 1014.958 1006.962 990.718 970.3802 951.7145 938.3297 925.1175 925.9142 933.5273 932.3486 926.2905 920.8657 913.3107 901.2849 887.632 879.397 866.2739 854.7897 845.2184 835.0355 826.9194 819.2739 810.9972 804.3751 797.3967 792.0663 788.3144 785.384 778.1625 772.8997 768.6046 765.7267 763.1736 758.7637 755.8643 761.7743 769.7618 772.8911 776.8917 781.2672 785.6376 790.9523 797.4128 805.7262 814.1541 821.8739 825.4897 820.1489 810.9958 797.8137 779.8376 765.2736 753.03 738.5355 731.5422 727.452 722.0548 716.5892 705.51 688.1429 694.5555 708.3959 724.9773 740.9123
719.6013 728.8456 737.8215 745.8456 752.731 763.9045 773.3509 776.7151 780.2969 782.1691 784.3174 789.4133 795.774 801.659 805.5535 806.808 806.7756 805.4137 804.1483 804.3204 807.7739 810.1881 813.9218 815.5187 818.1898 825.1417 832.0621 838.9905 844.9255 850.8654 857.2191 862.3231 868.0839 875.0999 883.7376 891.6401 898.3035 901.9241 901.9996 902.517 902.5496 901.7405 898.8893 897.984 899.6196 907.6664 913.9114 921.6277 925.9109 926.9217 927.9683 927.7905 926.7598 925.2293 923.8628 924.6509 927.3719 928.6968 929.9423 928.4689 925.6205 920.7057 916.7589 912.2947 900.8147 908.1489 918.5791 927.356 935.35 942.7429 949.7112 954.5032 952.9154 947.281 945.1677 946.993 950.3599 953.3911 954.0955 951.5871 954.2385 964.4768 973.4539 977.6628 979.9918 982.3244 982.3297 980.348 977.5092 974.3303 970.6254 967.1952 963.5077 961.3634 959.0383 956.0895 953.2449 949.4633 944.2036 936.4527 930.7882 925.5872 921.3878 915.848 910.1222 904.9542 899.5898 893.5295 886.9557 878.1603 868.498 859.2772 850.4904 842.0731 834.04 825.5582 820.7086 819.4814 817.5018 812.8713 806.1944 796.7119 783.2611 778.9602 791.7896 800.7089 807.8942 825.3964 836.2751 849.6281 857.7305 855.405 847.0489 835.2673 823.254 816.7256 812.963 807.1139 794.0437 777.8451 759.7131 749.1736 759.7481 774.0352 788.5374 805.1474 818.0636 820.8336 815.2214 813.1113 811.5323 804.9287 794.0837 782.3334 780.7563 776.2772 758.2303 741.6491 725.0142 712.487 700.0624 685.2469 669.6998 676.8657 693.2252 713.45 736.5622 756.7213 769.5192 775.9808 778.8246 784.0266 794.1606 799.9921 799.8808 791.627 780.5303 766.1241 768.6888 783.2497 781.2617 766.6435 779.035 781.7986 777.278 786.0542 805.2936 823.2931 842.8833 858.6324 866.6741 872.0904 881.9489 897.8083 907.6525 908.2427 911.7443 928.8677 949.8481 968.6678 969.9734 959.3648 948.4005 942.626 938.8334 934.663 925.2524 917.5731 914.9539 911.8331 907.0323 897.9449 886.2244 884.8244 884.4822 885.8383 885.9323 874.6733 860.2305 852.4946 863.7904 874.2107 875.3488 877.5903 889.9374 902.1911 923.9748 941.9431 961.4702 974.6339 986.49 1008.074 1025.508 1040.017 1051.272 1056.53 1061.437 1065.57 1059.37 1050.704 1042.471 1032.918 1022.959 1010.679 996.1979 983.3224 984.4732 1002.833 1020.76 1031.298 1034.488 1041.333 1056.552 1070.263 1064.411 1050.434 1032.145 1012.367 1003.443 1002.413 999.8485 986.3258 965.266 944.7443 931.3024 917.9076 918.5469 929.6227 929.4148 924.4904 918.5993 911.3289 900.3799 886.7161 874.3675 861.8632 849.2998 840.5822 831.8466 823.4465 815.3221 808.076 801.8958 795.6559 791.3141 787.353 785.2052 781.2569 774.3718 768.0544 763.3674 759.6917 758.0308 761.4178 767.0902 771.0215 772.9256 775.9188 780.2704 785.4751 790.5505 797.6968 805.4388 814.5184 823.6688 828.2918 822.6549 811.6924 795.1874 783.2094 769.7133 756.5283 746.545 735.725 725.2198 719.1239 711.03 698.6831 694.0403 706.1296 715.8654 728.9894 750.673
716.8 725.3086 734.833 743.2184 750.5744 758.505 768.0067 773.4239 775.7904 777.782 779.8686 783.6805 789.7745 797.2292 802.6772 805.3864 805.9863 802.5749 801.415 803.0613 805.7242 812.1915 815.6635 817.8674 820.3027 825.8431 832.6794 839.6789 845.5319 850.8706 856.3616 863.715 871.2667 878.8547 886.8406 895.4453 900.5976 901.3765 899.439 898.1846 896.1152 894.2673 892.1371 890.8273 892.0604 901.9955 910.1841 917.5737 921.3289 922.2811 923.3803 922.8057 920.972 918.353 917.7501 918.2507 919.7525 921.3497 924.2157 923.004 918.0814 913.7419 907.5005 902.8396 894.2049 905.7979 917.2388 925.7064 934.2274 939.9744 945.0389 947.1699 941.9974 936.213 934.0452 937.007 939.5714 942.0251 943.9456 947.6951 956.0315 963.6554 970.122 976.0189 976.97 979.4944 979.4403 976.9922 974.1811 970.0749 964.9512 960.6188 957.1132 953.9584 951.1146 947.6118 944.246 941.752 936.0103 927.6187 921.7898 917.4929 914.9766 910.1653 903.6781 897.5768 892.5347 887.7537 883.0679 875.8132 868.1697 860.5442 855.6799 850.1173 839.8073 828.8818 824.0218 821.3732 818.4633 813.6528 806.0487 798.255 788.075 776.5286 776.8477 785.8671 796.8915 811.9275 827.8444 842.7705 850.5579 849.9318 846.6006 837.681 826.4257 813.663 802.8257 797.1167 791.1849 780.3174 766.2629 748.5047 747.0154 764.3152 782.1036 798.3815 810.9966 814.4357 808.9184 803.7617 802.3475 799.5145 793.5251 788.6494 789.6803 788.8856 772.6472 757.5211 750.0897 749.5425 727.2142 696.0191 667.7601 669.8138 681.8348 701.4955 721.8807 739.5504 752.867 759.8785 761.1473 773.8857 788.3145 797.5805 795.3749 788.0086 777.4336 762.7341 757.7172 771.361 772.7685 757.7653 765.8052 765.0223 771.9327 791.5776 809.4356 827.1635 840.9688 847.7256 851.0053 857.0758 871.1552 881.165 885.6548 891.6251 905.7443 924.3698 945.9774 959.4634 955.7662 942.2896 929.6028 927.0194 927.241 926.9322 920.3031 912.8525 909.9293 909.1119 909.085 900.3613 887.6338 880.6553 872.6832 876.5527 881.7911 877.8988 861.6046 846.1988 843.8335 854.7086 857.6354 861.4411 871.7536 894.0038 911.0655 928.5942 940.4075 954.671 975.0742 997.8438 1012.81 1023.309 1033.042 1036.869 1044.14 1053.476 1047.564 1038.995 1030.28 1019.874 1008.808 998.5908 984.6835 973.7556 985.6602 1005.011 1021.878 1036.755 1038.485 1041.222 1054.818 1065.781 1059.278 1046.367 1030.947 1007.586 988.8843 983.1693 984.5355 976.7513 958.7323 938.9743 922.9073 908.502 911.8521 922.5716 921.7496 919.3148 916.3264 908.5851 900.8312 890.0901 876.2027 861.2106 846.934 835.9222 827.2574 817.6161 810.7181 804.6364 798.7358 792.7783 788.8218 785.8456 782.2953 778.6881 774.8671 768.5593 762.8113 759.5543 763.7056 767.9635 770.6179 773.1112 774.9894 776.9185 779.6944 783.964 790.918 798.3459 805.5172 814.9529 825.0421 830.5502 827.3333 817.347 806.9022 802.4014 785.3066 771.8971 758.1903 742.1624 725.0942 714.6652 700.6332 699.077 711.9 722.6218 733.9615 744.1271 762.947
713.4475 721.8758 731.395 739.0746 747.1662 754.4169 762.0415 767.7684 770.1444 771.9401 775.2359 780.868 786.9407 794.8775 801.1112 805.9152 807.9752 803.9957 801.5423 801.1586 801.7633 809.4305 815.3087 818.2415 821.9847 826.9963 832.8242 841.0773 845.0968 848.7565 855.1767 863.6662 871.9972 880.3787 887.7469 895.2488 897.9065 897.1564 894.4205 891.4462 888.548 887.2964 885.9582 884.9333 888.8669 897.8083 905.7539 911.8491 915.8776 917.2012 917.0286 916.9677 914.7972 913.4769 912.9968 912.2314 912.2825 915.026 918.0972 917.796 913.3876 907.9101 900.6852 891.5853 893.5695 908.923 917.8378 922.8697 928.9804 934.2835 936.9821 935.7264 928.9438 919.9019 922.5995 929.7355 930.5317 934.7775 941.4573 950.0436 958.9551 965.8768 971.2045 975.4934 977.322 979.0476 978.2162 975.6147 972.283 968.0356 962.7111 957.9634 953.5028 949.468 944.8602 940.4833 936.5339 933.9182 928.035 920.9097 914.7614 909.9594 908.2877 904.524 897.8248 891.2886 885.7434 880.8423 878.0292 873.3553 869.2291 866.6866 862.8939 857.257 847.4205 837.9185 831.3769 828.2836 827.23 823.6381 817.106 808.9407 797.2956 782.6752 769.9629 773.8211 786.42 802.6598 822.301 837.8273 843.6482 843.0624 840.3165 834.8 825.284 814.2495 798.6085 782.9362 778.8152 774.8727 766.4693 749.658 740.7787 759.0817 777.909 792.2697 801.08 809.3303 806.1548 797.7365 795.0681 793.3266 791.9554 793.6009 797.647 800.6043 791.2568 779.3552 779.7627 768.7991 725.9757 693.5325 666.797 664.5504 675.1007 693.8983 714.3514 726.0352 734.5338 738.9216 752.5123 773.0588 788.5707 796.4114 792.3358 784.7172 772.7369 758.4675 748.5042 755.9852 762.8358 750.1925 751.1674 757.0598 776.3673 792.3158 809.5703 822.2128 828.5401 831.9802 832.7966 843.815 855.325 861.3549 866.0717 882.0197 902.4503 920.1754 938.2299 947.1984 940.7552 926.8557 917.2839 917.4251 918.3315 921.5999 916.2368 908.7573 904.2842 904.9734 906.0652 899.4025 887.334 876.8867 864.9313 863.7527 870.5428 870.5589 860.041 842.5847 827.2581 833.1041 840.1187 845.2356 854.6821 878.2261 895.6168 910.2448 927.7852 946.3823 967.6646 985.1111 994.7759 1005.423 1010.311 1015.427 1028.261 1039.548 1037.723 1027.384 1018.878 1007.974 995.5181 985.1301 973.3021 964.6301 986.6523 1002.614 1020.472 1037.828 1048.935 1058.143 1065.689 1059.815 1047.403 1035.332 1024.451 1008.912 986.0649 967.2518 962.3456 961.6863 948.6125 930.2393 912.4309 900.6827 904.9078 910.8269 912.7152 911.2189 911.6176 906.1224 899.1248 891.1672 880.9167 868.8675 852.732 838.8137 827.2297 817.3959 811.3927 807.1001 801.2068 790.2161 785.8858 782.7072 778.4871 773.4301 770.8855 767.1921 762.6968 761.9893 765.5338 769.0299 771.2592 773.7966 775.6453 778.3075 781.269 784.7323 791.7231 798.3821 805.6858 815.1987 826.3388 832.3582 834.2633 826.9296 820.5027 815.4312 798.7825 781.6657 765.223 744.677 729.1938 717.8022 702.4985 701.0079 718.7745 731.722 741.6138 752.5937 771.9312
708.7285 718.099 725.5518 734.3339 742.6643 749.6046 756.6257 761.7197 765.439 769.0862 776.2741 785.4027 791.9255 795.8547 801.1082 804.0767 806.0686 805.5418 803.6757 801.7561 801.0334 802.661 812.6919 816.8828 822.2595 827.6724 832.1287 840.1511 842.6189 846.0234 854.0651 863.5192 871.9125 879.7238 886.7365 891.6174 891.9292 889.8284 885.7728 882.9236 880.5468 878.2328 878.8549 881.7703 887.4133 894.3016 900.4766 905.9294 908.8781 910.7439 911.0277 910.9045 908.6459 908.2336 908.1127 907.7602 907.7339 910.3381 912.2526 912.1096 910.3475 904.5825 893.971 885.3575 895.7345 910.5862 915.7416 919.0148 923.3857 926.9351 926.7149 921.6808 915.1203 916.0644 923.9601 929.0978 939.8318 939.4762 943.8708 952.3294 960.3411 969.5196 974.9525 977.6219 980.4175 981.7718 980.4047 978.2617 974.8098 970.3688 964.1885 959.5573 953.8608 947.5515 941.8329 936.8024 931.7828 927.5724 921.5494 915.5544 908.0511 904.0435 900.8722 897.5595 892.8333 887.8593 880.3525 873.8552 871.0195 868.9676 866.7432 866.111 861.1163 854.7977 849.8074 844.2421 841.8044 840.8971 838.5397 832.62 824.0173 812.9539 800.0469 784.513 768.1309 767.1713 783.0569 801.2055 820.8323 833.2014 835.9926 835.6839 833.1035 829.0938 820.8925 809.7352 794.7676 776.1269 762.7023 762.6516 757.3307 743.3792 740.0912 757.71 770.6072 780.8014 791.3565 803.9622 803.3269 794.2285 788.1252 788.1544 789.886 796.9019 805.7463 811.089 811.1214 804.6074 783.3461 753.0922 722.2449 697.5255 673.8784 661.4551 674.3043 697.2173 701.15 704.5483 716.5667 733.5768 756.1731 778.4025 793.111 789.5228 784.439 780.6131 772.2284 758.7935 744.1741 740.4972 747.4416 736.2621 744.2804 762.0144 775.8028 790.7509 809.3733 812.2225 811.7307 811.6359 814.8577 828.0887 834.8395 840.7631 853.7527 875.4992 890.9628 908.7815 925.524 932.6093 923.5969 912.1014 906.7961 909.7265 910.0233 911.2346 906.2027 898.6785 895.759 898.3318 898.0185 891.6883 881.3908 871.2913 860.5639 851.4135 855.3646 857.0046 853.984 838.8538 820.3662 819.5486 828.6859 833.6212 839.511 860.7278 882.0183 896.825 916.7855 938.2584 955.0937 965.268 973.0132 983.5234 988.0698 994.7502 1012.371 1030.405 1031.011 1016.341 1006.523 995.1177 981.7125 968.694 960.5557 958.2382 982.9797 1001.576 1022.162 1037.149 1051.831 1062.819 1070.074 1055.491 1036.746 1021.703 1009.281 999.025 983.8357 967.9534 947.1674 941.7584 935.1003 915.6752 902.023 890.555 895.8052 898.938 905.7245 906.0375 906.3765 903.8606 896.8024 887.5822 878.4797 870.4151 861.2886 850.9496 840.3652 830.1298 822.8488 815.649 809.8235 795.5985 787.6336 781.6209 776.2615 772.0396 767.7758 765.1699 764.3489 763.9535 766.1407 768.7584 771.0092 773.6534 775.8327 778.5652 781.4999 786.3473 791.5082 798.9977 806.2516 815.6078 826.161 834.545 838.3642 835.7194 831.0486 822.3473 800.5311 778.6929 767.0997 750.4594 733.1142 719.3947 708.0711 702.7586 708.7336 718.3508 735.3013 750.7037 770.4899
703.7029 711.972 718.9161 728.8942 736.4662 743.9954 750.5051 754.6407 764.2205 777.3132 783.7112 790.8774 794.0597 795.9044 798.7148 798.9977 798.5799 801.9464 804.8111 802.5836 800.8106 801.4733 806.6045 813.5671 819.8856 825.3125 828.4524 834.0276 838.1009 842.3785 852.629 862.7137 870.2703 876.9239 883.7802 885.5614 883.7231 881.0915 876.6431 873.6974 869.8905 871.4548 875.7213 880.9684 885.9846 888.7564 894.8349 900.8204 902.9348 904.6924 906.0173 905.9114 904.5496 904.376 904.2946 904.3747 905.0627 906.6539 907.8003 907.3245 905.7318 900.4075 886.5722 882.4002 896.7635 908.0347 911.6816 914.3963 915.1677 917.9114 914.7739 905.4593 907.4072 919.6199 930.8356 936.0289 943.756 949.968 951.3039 953.0068 962.148 972.5617 979.2782 982.1606 984.9908 986.4097 984.9708 981.9818 979.1943 975.0333 969.6529 962.9666 956.5687 949.9073 942.6468 935.8044 930.4073 923.671 917.5001 911.0357 904.7368 898.9521 894.3674 890.2203 885.9893 882.8138 877.3419 870.1742 864.4136 862.6268 861.4449 860.2286 855.7164 847.0364 839.4171 840.5712 844.3689 844.4029 840.841 833.7679 821.6916 805.189 789.6727 772.9258 759.9136 767.7817 788.5084 806.847 821.7084 827.886 828.5688 828.305 825.7804 821.093 813.9146 801.9971 787.4011 772.9382 754.7871 749.1611 743.5597 734.728 738.8397 752.8635 763.1727 773.4708 788.6829 802.1536 801.9741 792.0583 785.285 783.8471 789.3948 800.924 813.2452 820.7991 821.6414 809.6749 793.2726 750.6892 732.6988 699.1517 675.8906 654.0499 666.2581 681.8015 689.0329 706.9061 734.6461 757.4982 768.1742 784.4748 788.382 781.3976 770.4409 763.2783 764.3478 762.2416 751.0181 736.2263 727.038 732.6754 750.7709 767.3643 782.857 794.9265 800.4331 798.8584 797.2005 793.8887 801.4786 812.5492 811.8824 829.6011 847.8251 863.0631 884.6315 899.9156 911.331 915.0601 909.6281 896.8586 894.1667 896.8904 899.2586 897.6207 891.6631 882.6837 881.5417 886.1644 882.208 879.079 872.3693 862.1349 855.4526 843.3717 841.3049 845.4586 844.6673 833.1835 816.2965 815.6117 824.4799 829.4974 834.3468 848.1796 870.0106 888.1078 906.0775 926.1795 940.2429 947.3307 953.9211 959.9203 970.3557 986.215 1007.984 1023.503 1023.572 1009.174 995.2604 982.3074 968.2305 956.1545 946.6003 957.3772 980.1885 1001.104 1021.259 1034.663 1047.572 1061.11 1071.099 1057.437 1036.404 1019.571 1002.274 984.6198 971.2964 954.5153 937.8214 923.6622 918.4554 909.0929 885.8892 881.8958 887.6951 890.704 896.1623 899.8482 900.1437 898.8542 893.0118 883.7947 874.3911 867.0861 860.0469 851.9305 843.2068 834.234 827.2174 819.2736 813.0513 806.429 798.72 790.1418 782.0397 776.0253 771.8179 767.1944 765.1808 767.1748 765.2537 768.8464 771.313 773.4299 776.3224 779.0333 781.6544 786.0533 792.3053 799.949 807.006 815.8365 826.2051 835.6568 841.181 841.0995 837.2046 826.9324 804.8678 785.1219 775.1721 759.7625 741.5802 724.4537 714.747 711.7554 707.3892 708.0912 723.1929 742.0259 759.0949
698.4141 706.4097 713.5636 722.8466 730.4622 737.1616 743.6523 754.8746 767.7151 781.0601 784.8586 788.2894 792.9982 795.4633 796.7532 798.4035 797.8093 796.647 798.6462 799.5233 798.6968 799.3112 801.438 809.8501 817.6117 822.5812 824.2353 826.7905 831.8018 839.0916 848.2867 857.673 864.8852 872.1932 878.4971 877.8598 874.6757 871.414 868.4816 863.2447 859.0735 871.9005 876.3229 879.5235 883.4614 884.9073 889.1686 895.0629 898.4512 899.8441 900.9026 900.9681 901.1841 901.4345 901.1243 901.3115 901.8391 903.2899 903.6199 903.3302 900.8683 894.3681 880.2272 880.2935 895.6315 903.4437 906.8167 908.416 906.3356 905.5876 901.2092 897.7947 910.4106 925.5676 935.1376 941.4094 947.9459 958.4931 962.0549 962.6928 967.2966 975.6531 982.9794 987.4902 990.6058 991.7728 990.7448 988.6683 985.7106 980.5153 975.2816 968.8418 959.5717 951.4039 942.6556 936.9387 930.3315 920.7326 912.8993 905.9544 897.6423 893.8982 890.9621 887.8255 883.2563 878.2567 873.5466 866.6988 860.2648 855.0182 853.1082 850.4508 847.9435 841.0654 830.2984 830.7566 836.5991 840.2408 839.7048 833.7418 816.9968 795.4597 774.5563 756.4388 759.3616 779.9603 797.8487 811.5517 816.5903 819.9417 820.8782 819.6395 818.1504 812.8233 803.3322 792.9769 778.7875 765.5059 751.3233 738.0845 730.3888 729.9908 742.0533 752.4143 762.2504 777.4125 793.4703 805.5267 802.9975 791.1396 783.2418 780.4185 788.0498 801.9817 815.7184 827.0876 823.4659 796.5609 782.7563 747.3964 728.1576 698.3185 675.5884 654.0926 653.658 668.0937 683.5558 704.0114 726.8982 745.6211 756.912 771.1682 774.3907 772.522 760.6157 756.3138 754.6774 752.5289 749.3517 739.2264 721.2329 727.4051 746.1257 760.073 777.6183 784.2659 785.6895 785.1245 779.4078 778.126 792.2012 792.8312 803.2982 821.6843 838.8065 857.7943 871.3056 882.6323 894.4571 903.8555 899.9068 883.5267 872.2775 876.3535 881.2125 880.5213 873.8546 870.6633 872.3259 869.6261 864.2358 860.2253 858.6514 849.4943 844.7677 836.2606 829.314 832.7612 830.4988 821.9147 811.9308 815.7537 825.6439 828.7347 832.1799 840.4493 857.3591 877.6547 896.4711 912.3868 921.8809 929.1166 936.4048 940.5919 961.2062 985.1861 1005.202 1013.996 1010.387 998.9686 985.3685 971.0153 957.4381 943.7326 940.5748 959.3814 982.7063 1002.326 1018.475 1030.776 1043.484 1056.916 1067.545 1062.097 1043.346 1027.631 1005.91 988.3435 972.7402 955.8868 938.6031 919.7911 904.0511 897.8005 883.7019 873.1932 876.8475 878.6563 883.6785 886.7239 889.3258 892.4885 888.0262 879.7281 870.3359 862.7103 853.373 847.2612 841.7179 834.3179 826.0983 819.8586 812.0602 805.5042 797.2999 790.8794 783.2635 776.4247 772.3558 768.0565 767.2645 769.2659 767.1254 768.3887 770.8514 773.4916 775.8588 778.5828 782.0949 785.6199 792.9544 799.9134 807.1125 815.8971 826.6805 836.2776 842.8442 844.6877 843.7455 835.7695 820.0427 803.7808 787.3167 767.3496 751.5244 735.9005 724.2645 720.4228 715.6962 713.9431 713.2142 729.0864 745.5615
695.8686 702.944 709.9142 717.7025 723.6693 730.8569 743.8394 757.207 766.5053 781.5469 784.929 786.5247 790.5742 794.0287 796.8923 799.5469 799.1707 796.6209 795.5064 795.6846 794.6765 795.6004 797.7914 808.0652 814.9467 819.6345 819.6743 820.9774 825.4589 832.619 839.7218 847.602 855.2286 864.7716 871.7155 869.6726 866.1918 863.3148 859.1851 852.8771 860.4568 868.423 872.1084 877.5107 880.7153 883.7637 885.9944 890.5235 892.9999 895.5359 896.0404 896.3247 897.3871 897.2626 897.8221 898.3112 897.5153 899.4151 899.3751 899.3728 895.7451 890.2258 876.0138 877.3501 891.2949 896.9513 897.9981 897.272 894.5918 892.1666 890.9827 899.0965 917.0278 930.616 941.2536 949.531 953.8135 959.5993 966.5581 976.1473 977.5748 981.8658 986.9813 992.4134 996.7929 999.3721 999.0735 996.4029 991.9409 986.2194 979.3284 972.1122 963.9721 954.6887 944.8354 936.6227 929.4201 919.4009 913.0562 906.4555 898.7524 892.7181 886.4341 881.8542 879.2596 876.3796 874.1481 871.5851 864.7601 856.845 851.8402 846.0059 838.9131 832.222 821.2816 817.3821 820.8081 827.2193 833.4379 829.1873 813.4982 789.6569 765.57 748.3964 763.7595 784.6042 797.0273 803.3193 806.9512 809.1318 810.243 810.679 809.8245 803.5246 792.8467 781.4811 768.3033 756.3126 743.1985 732.7917 723.6845 735.4858 751.1588 765.1235 774.1703 788.3467 800.8523 810.7174 805.5768 792.0382 780.7702 777.9685 784.5414 795.7214 806.7482 816.3672 810.0154 783.1628 762.1481 740.1962 717.5307 697.9695 677.4825 658.7839 649.1317752352288 658.7096 675.5025 692.7839 707.8257 722.5634 739.699 754.8994 760.2441 760.2078 756.1738 753.1603 749.7251 747.2234 744.5016 737.73 721.3353 717.9487 730.1165 748.1146 767.1689 771.3506 769.4783 769.1899 760.8936 771.9775 783.9647 778.6049 797.7013 813.3866 830.2034 841.3043 852.1392 866.5238 882.5009 899.8615 893.8405 878.0731 861.4318 862.3727 862.2502 856.3046 853.1315 848.2728 849.3127 849.5546 841.764 837.1297 837.059 834.1666 830.2938 824.7493 819.9421 822.4694 820.0728 810.1465 807.4984 815.1519 819.893 825.145 829.8526 834.1799 846.0703 867.8392 884.005 897.0258 901.2186 911.0471 917.3129 933.2698 960.2123 981.0891 994.4088 1003.238 997.4041 988.7284 977.5579 962.54 947.8469 934.9845 943.6988 959.6084 982.2596 1001.574 1015.139 1025.92 1037.751 1048.793 1059.06 1064.561 1052.924 1034.446 1018.132 1001.043 982.9662 964.543 946.7504 926.7056 903.3225 887.2671 877.9494 865.6462 862.5877 865.752 872.7042 873.8382 877.4097 881.9253 880.7896 874.8668 866.0662 857.7479 847.1531 841.0923 837.024 832.0681 824.6915 818.5576 811.2185 801.3995 792.5978 788.3869 782.5108 776.1539 772.3196 767.5648 767.4645 769.8942 768.9417 767.9859 770.2624 773.0391 775.1051 778.3923 781.8761 786.6465 793.2181 799.7404 806.6427 815.9323 826.2838 836.8901 844.2043 847.3525 847.32 844.04 832.7119 812.6287 794.5565 776.6233 758.6724 744.5945 732.987 730.9321 723.0951 722.3328 716.2679 719.3154 730.3465
694.7137 699.9576 706.5244 713.2712 721.7362 732.3875 745.0826 755.5889 765.8919 777.0547 786.0905 786.2582 788.4977 792.3305 795.2706 801.5353 800.3544 797.7623 794.2402 792.0322 789.9302 790.241 794.5728 803.3164 808.6407 811.6502 812.7549 814.0478 817.8356 823.7626 828.3428 836.5425 846.5662 856.2708 864.8621 862.6194 858.9722 855.0814 850.1523 850.6493 860.3075 869.1081 872.957 875.9103 877.9943 879.4544 882.2764 885.3595 887.6722 890.6527 891.9463 893.1879 893.4805 893.8878 894.7192 894.6621 893.6618 895.1821 895.1469 894.3138 891.5326 887.6296 873.7008 872.1368 883.4626 886.9203 885.3358 882.4645 884.2444 889.3006 894.7457 907.7961 924.085 938.662 951.8462 955.0504 954.0858 960.5982 973.9517 984.654 987.8458 989.9136 992.8101 997.7787 1003.574 1007.507 1008.7 1005.439 999.9081 992.9564 985.3303 976.8229 968.0126 957.351 946.1625 936.5157 927.7233 920.0186 918.1254 915.4124 906.2812 897.2719 888.7008 879.5933 872.8406 870.5099 872.7961 873.8851 866.9239 858.4538 851.0687 847.1492 841.3362 828.175 811.0354 802.8456 803.2682 811.4261 817.2181 815.3988 806.5916 787.6852 765.1749 744.9656 755.9291 774.7227 784.9875 790.332 793.6362 795.67 798.1652 800.3771 799.8723 792.347 780.75 768.5889 756.0883 745.8516 734.5892 722.4114 724.3912 740.9043 756.5129 772.675 788.9782 802.0444 813.2585 817.4327 807.024 792.2543 779.9135 774.5616 778.2551 785.4938 790.1611 794.0047 791.0554 776.5166 758.816 739.4839 720.0035 700.2817 682.7599 665.6532 650.5724083870582 648.3504 663.2502 680.6103 696.6955 713.6367 733.2638 743.3267 746.2544 746.54 746.8192 746.446 745.7406 744.6236 742.0525 736.3691 722.1511 709.8327 716.9068 737.5992 757.943 758.0258 752.6188 751.6056 749.6537 764.8125 768.9016 767.9439 788.8987 804.9695 815.2226 821.2181 835.3571 853.1619 875.0443 895.2527 893.5638 874.0252 857.9504 855.6907 851.6026 845.0929 836.7965 829.6336 831.1161 832.7548 824.4819 817.8342 816.7399 816.0727 815.2102 812.6351 812.9169 815.9638 812.9236 804.3354 806.1576 812.213 816.7983 821.1046 824.0366 826.3756 834.9844 853.3257 867.1373 878.552 885.4568 894.0996 907.0431 930.5154 953.148 969.7628 982.8032 993.296 989.5054 981.1117 969.4055 953.375 934.1574 931.1266 939.8568 953.5577 975.4974 997.0742 1009.436 1020.178 1028.79 1038.698 1050.507 1061.08 1060.152 1041.425 1028.28 1005.976 987.1342 967.6944 949.0063 930.189 908.0715 889.6283 878.5089 867.2434 857.421 853.5073 860.9298 863.1902 866.4728 870.2408 871.038 867.5496 860.512 852.0325 840.3983 834.271 831.3077 827.9135 822.6719 817.5004 812.35 802.4323 791.7956 785.158 779.4395 775.3317 771.6343 769.1916877123833 768.52655 770.8819 771.0485 768.4725 772.0463 774.624 775.8867 778.1225 782.0419 787.1672 792.7071 799.4045 806.0878 814.3211 824.2453 835.169 843.592 848.8679 849.0757 846.8495 836.5245 818.7437 800.3702 780.5014 762.4519 747.5659 744.473 744.9135 735.2985 729.5427 725.6 723.1614 720.0526
699.7814 704.7562 708.3433 714.6381 723.6949 732.3715 742.6584 751.7366 762.3971 771.283 783.0135 785.7138 786.262 787.8713 792.447 791.821 792.7404 791.6343 789.2944 786.0362 780.9336 779.0003 785.5602 792.4241 796.434 798.6359 801.1695 804.9725 810.4594 812.4753 815.9276 823.6584 836.3878 849.0208 857.4216 857.0796 851.9217 846.7473 842.9358 852.5125 862.5301 866.3959 869.6859 872.5397 874.1154 874.4403 877.1704 879.5704 883.5798 885.5729 886.8702 888.9904 891.6891 891.004 891.5078 890.514 889.7147 890.6609 890.7077 888.814 886.3659 879.8311 868.7366 865.3025 870.0 873.3488 875.2498 879.6035 887.5627 897.3431 906.671 917.1013 932.8726 947.0283 957.2318 959.4687 962.7048 970.55 979.6593 984.5484 988.8708 992.6179 997.4809 1003.951 1012.121 1017.414 1020.303 1018.695 1011.995 1003.965 994.5042 983.4315 971.64 959.3149 945.4651 933.7121 929.0105 925.1855 923.4516 920.9835 911.7109 901.9839 893.2443 885.2356 875.5765 864.7797 863.5574 863.1461 856.5728 848.0373 841.1904 838.9462 832.4375 817.8096 803.2845 798.1664 791.6605 791.8576 795.4729 794.9516 789.799 776.3136 759.7761 740.3389 742.5005 759.5463 769.0414 773.2532 775.9348 779.413 784.3536 788.3452 788.0355 779.9922 768.2966 756.0658 741.8781 729.2 720.7093 719.2441 731.8807 747.8012 763.9218 783.7249 801.2375 818.9742 828.8799 819.3579 804.7034 790.054 777.5026 768.7241 768.5607 774.4907 777.1851 780.1019 779.5886 765.4688 749.6187 734.6559 720.5344 702.7382 685.8762 670.7085 652.634 648.3256287500001 656.1835 676.2299 692.6211 710.8224 724.9921 730.2916 732.1393 733.1755 732.3 734.1836 737.3103 738.4431 739.7347 733.9983 721.9616 700.6727 711.0388 731.8655 750.4575 747.3414 738.5652 735.1651 742.4994 755.2954 749.658 759.1774 778.6592 791.3978 795.3572 807.6491 826.2074 848.3256 866.5144 881.968 890.8318 876.6425 855.174 851.2034 847.329 837.3245 826.709 816.2609 815.0145 814.6945 809.7145 807.7378 809.0279 806.0428 805.1566 804.0089 805.1143 808.8654 806.0591 807.1431 803.7026 810.2141 814.8587 818.2114 819.4175 819.6373 826.2529 841.1774 854.903 863.4269 871.5588 883.7614 902.2639 921.048 939.1456 956.3541 971.1294 982.1843 974.8984 965.4028 954.9592 943.7319 926.702 919.5979 930.5789 947.3644 970.0955 989.8748 1003.915 1013.696 1020.09 1027.75 1042.516 1055.31 1063.898 1055.862 1037.375 1017.09 990.5719 970.7651 950.7676 932.59 914.2251 898.7736 886.2442 874.2383 861.7767 847.6555 848.2993 852.0123 854.3434 857.3253 859.4978 859.4998 854.4542 845.5233 835.356 828.4055 825.1643 822.571 818.4042 814.9262 810.6371 802.7631 793.5122 786.4625 777.7593 773.5806 770.2277 768.6133 769.5886 771.7572 772.6028 770.1638 772.2733 775.8909 778.1404 780.2199 783.9431 788.3254 792.4828 798.0543 804.4636 811.8359 821.5549 832.2955 841.7755 848.2515 849.7964 849.4431 840.5671 822.1411 802.9824 780.5875 766.2974 754.7976 761.8776 757.5344 747.3931 739.2775 732.27 731.8779 726.9896
